ply
format ascii 1.0
element vertex 694
property double x
property double y
property double z
property uchar red
property uchar green
property uchar blue
end_header
0.4528447483447914 -0.2882519289055624 1.0553035887739803 148 46 94
0.0608138937938824 -0.2181163270772703 0.9673219745217010 255 252 209
0.3927105951974956 -0.3774167406595209 1.1244731302235105 33 28 22
0.7848752013818868 -0.1303788301150404 1.1052821932354941 50 58 77
1.8797944814030292 -0.2174203862289878 0.7743047256859258 227 179 107
0.5578635797178753 0.2183307024054978 0.9601172669383988 19 19 17
0.6307921174876717 0.1869617295602178 0.9664518494587965 147 163 189
0.4815138931288543 -0.1135847084072958 1.0568411858145002 70 131 198
1.8818611179168081 -0.2195020332014667 0.7495025506731060 218 173 106
0.1942643304430723 0.1549714835831809 0.9007092557478096 202 202 194
-0.0910863039590347 -0.1469729385023811 1.2832947766078380 130 125 121
1.4887099820506537 0.1934329269988552 0.8978200996957414 67 64 57
0.4261965777883590 -0.3139168702629604 1.0585600002505584 218 78 107
-0.0680905494540380 0.0444882105351577 1.2659452787232968 175 163 139
0.1431270388081693 0.3363785072736638 0.8703868861611370 249 251 248
0.5196119715824101 -0.2675240790229360 1.0490267013023318 237 252 255
-0.1481438491903131 0.2829113257614377 0.9569284734186477 79 105 44
1.0301444370028463 0.1258362572149688 0.9663825334863475 233 230 213
0.7908332609956245 -0.0954049337842402 1.1008582010665309 12 2 3
1.0172647637735759 0.1637900684413320 0.9096640232989999 220 217 202
0.4629454422945024 0.3112527645932386 1.1287865837836752 181 181 155
0.6097561434595545 -0.2839050327489188 0.8868739734250658 53 57 68
1.1646438599724434 0.1253549045413447 0.9004018985282134 251 253 250
0.0770393749858219 -0.2225353118817839 0.9650003784103602 255 227 179
1.0009979517779362 -0.0633275303674483 0.9278370658649147 143 134 155
1.7952214906061461 0.0896804806899400 0.9099894093173359 248 248 246
0.5349308495272920 -0.3387408274049538 1.0526087734187799 32 74 160
0.7428732517540274 -0.1169534415361192 1.0978705496691075 190 213 247
-0.2134671600870688 0.1488882273635213 1.2195300134705935 230 238 240
0.4609753305331338 -0.1725871808438621 1.0283901604012122 144 84 34
-0.4024139047633481 -0.1480263525930121 1.2679216421814585 242 241 237
0.8656306523785838 0.1836883302246393 1.0405146144716384 76 55 28
0.5573801021792035 -0.0818181245591558 0.9449557975757921 165 161 150
0.5680611538816102 -0.2253366096242685 0.9422396273818353 233 202 217
1.8745308991212075 -0.2334174599635933 0.8860635654627178 215 169 107
0.1857170610907189 0.1235599463336031 0.9076159660287153 254 255 249
0.4744936834134246 -0.3061602356984884 1.0602845259915272 255 254 179
0.5020645013163839 0.0355328812165400 0.8835460715941084 228 62 76
1.7504227799578904 -0.2747870441172315 0.9402299763662663 8 10 5
0.3875058241334643 -0.2718714112629817 1.0504121456802900 245 249 248
0.9753210912296749 -0.1673879186645141 1.1282283557661652 193 195 218
0.9988365190843695 -0.3348886194377169 0.9690757463203978 26 29 36
-0.0840225548178520 -0.0597985057543059 1.2752044233633435 229 229 231
0.4945078030226863 -0.3694658253084947 1.0666796248546551 236 244 255
1.0108744808265657 0.1556981972756538 0.9149670223632217 198 178 143
0.3764398726260968 -0.2942364641151519 1.0612655487173652 75 105 43
0.7709142060897142 0.0431748446865552 1.0411526912993814 99 134 130
0.1248807210372586 0.2766764214666478 0.8824872983344537 163 172 127
0.8857953752401706 -0.1216190056441410 1.1109826129840372 224 151 83
0.9659444324508697 0.0054555462378818 1.0245171950395358 146 126 39
0.1704885031508116 -0.1759003774450000 0.9443800560883000 238 208 174
0.7176049873187887 -0.2164402565835407 1.1434131611180416 219 171 159
0.5066439426446590 -0.3374116293014052 1.0540786424295543 43 116 218
1.3462652205838836 -0.3507616891051650 0.9224773486320947 253 253 251
0.1586179096083859 -0.1776606693566476 0.9410425344467213 247 224 190
0.4936817356112057 -0.3726067224955260 1.0668579817384574 110 137 148
0.6234478889886629 -0.1309935217614464 0.9685795405312844 130 175 198
0.1648802295598910 -0.2629239005099210 0.9247428910767395 161 129 106
1.5847618071431093 -0.0575835557034528 0.9259996805584669 35 34 30
0.1912327673244703 -0.1878989184257364 0.9192242947388639 161 120 88
0.3209461569325192 -0.0408748278375283 0.8705444968984897 204 226 250
0.5829090461916030 -0.3122171827021961 0.9411030420084734 226 235 214
0.8769223485681755 -0.2543437147875047 1.1141659750199524 195 171 161
-0.1573031959929014 0.2899273694242764 0.9598014323696653 232 224 205
0.5350243556303003 -0.1684681662480876 0.9811518299445706 255 243 204
-0.1152556071367073 -0.1110146596472484 1.2788159993965811 231 229 230
0.7991265796304922 0.0490151830842823 1.0337644848487497 246 254 255
0.1826498204325813 -0.2110017267640904 0.9104326344833922 164 130 102
0.5371959812336616 -0.0615109520225031 0.9456154722492615 188 173 132
0.9917327620472114 0.1819271612059172 0.9459797913979956 236 227 212
1.0069983019552113 0.1567181000079804 0.9101684972764776 169 152 109
0.5535512923681275 -0.1171424313681907 0.9349815696932393 184 203 207
0.4821518838222916 -0.0439196772723713 1.0387237228179806 245 255 255
0.9967513429701798 0.1566285528593007 0.9195258436706695 255 251 228
-0.1973030842534948 0.1314415657294652 1.2476217490963644 120 122 119
-0.1797052078181767 -0.3913510801014706 1.1362777599588394 97 57 31
-0.3215687816761908 -0.1253427631226205 1.2696195545529898 198 198 200
0.6065673881904599 -0.2110406942186793 0.9335543239473030 255 219 143
0.9400166220037153 0.1750368993348233 1.0383238614216053 255 255 250
0.5750330655697985 -0.1593557745448336 0.9560680693310541 111 141 151
0.8390883189456710 -0.2499913426426708 1.2013993356920771 18 11 1
0.4620687346521206 -0.3724870995826670 1.0643589062597512 123 151 162
0.0883391019813590 -0.4045724641695399 1.0256234434371221 233 202 156
0.5070220957031479 0.0822334234751343 0.9107565546244317 165 42 60
-0.3169405077316357 -0.1199277043290636 1.2695416253710814 216 215 213
0.7827556085643220 0.1866279750928832 1.0369963218112246 255 249 235
0.9066677931811346 -0.1007325658564809 0.9907382281841434 22 24 23
0.5164211383545493 0.2049368654142668 0.9801252451001536 112 88 40
0.3857221320285001 -0.3241120845876136 1.0649884178853699 160 130 57
1.8831792112402839 0.3742815034842334 0.8702937857789653 209 168 112
0.9389535267823761 -0.1297499616060240 0.9640032780614390 150 39 45
1.0649171044139596 -0.1718638421442952 0.9199488699719250 111 118 134
0.5640522472524852 -0.1148900079544954 0.9299666218427824 174 188 165
0.9681336508471196 0.2440625435549142 1.0396272846575154 157 163 159
0.6057804162391897 -0.2353408136274767 1.0768234292576682 122 126 129
-0.1008879461788732 0.1619122688811959 1.2513767821268582 17 27 29
0.5596918567458713 0.1766067673037232 0.9605418897895842 172 158 147
1.8726381814313062 -0.2467066042234120 0.9258456186505530 152 106 46
0.5282863986867568 -0.2229532852438650 1.0466841883393028 12 11 27
0.9158882526576078 -0.3027856326694150 1.0253179799733985 129 160 145
0.1287602587476448 -0.3285140710957432 1.0367132664081646 133 109 83
0.4298114257915737 -0.2373715166101339 1.0675500707812360 254 255 255
0.4682418798898236 -0.1485515298302501 1.0511258254364089 138 155 173
1.5345094355026023 -0.2505241192398605 0.9307526366494339 240 240 238
0.7266153593040536 -0.3049468019362098 1.0624961189368720 51 78 97
0.6415908061043334 -0.2208911605798147 0.8988468288008628 111 119 121
0.9920417006002210 -0.3356639076759897 0.9981900523831236 229 229 219
0.1491818265357450 -0.0178733531937238 1.1147781188111723 111 49 60
0.8526663015906305 -0.3660278968748880 1.0408120981741393 44 50 38
0.5046569887058412 -0.2651036027697323 1.0526206808915237 54 125 205
0.4314366985560233 -0.3501204315142832 1.0658427240111870 115 10 0
0.5762321582666303 -0.2673817159848134 1.0411209218576534 105 68 60
0.7326914490487193 -0.1386765251464172 1.1105332175236498 255 236 235
0.9926528956011830 -0.3621815763453437 0.9452519038345171 111 107 106
1.8742637668223048 0.1692834665468975 0.9069124525317475 158 122 64
0.8798351569719076 -0.3847727604880168 1.0425096732355599 68 86 70
0.2014686892690721 -0.2060242813760553 0.9291925004784448 81 59 45
0.4673301893506057 -0.1363652370777279 1.0507607171655045 107 114 106
0.4999298013598199 -0.1424628795133723 1.0527499741538708 252 255 253
0.0952221660930794 0.3482985833633575 0.8590114620759600 97 100 105
1.3660230624106497 0.1648603798884371 0.9052155186451140 236 240 239
1.0661580330906375 -0.2177603394954817 0.9254912673469392 135 143 164
0.3412898701031660 -0.0287884177013167 0.8709396534497065 192 179 160
0.9963441352054579 -0.1979547230080168 1.1403906262609287 201 209 211
0.2559475830585313 -0.4256444772502528 0.9022459927186526 20 20 22
1.6133614380711887 -0.3929402767391592 0.9635665062516429 243 238 234
0.9103128761393489 -0.2810425494898210 1.0410171728495576 34 25 18
0.8486486233846710 -0.2918318126255693 1.1048161598837001 178 188 241
-0.1004290100281855 0.4099124965249584 0.9779532299273664 17 28 12
1.5810636942781975 0.1179686345074105 0.8796855983576267 254 254 254
1.0089933343422710 0.2568759795936750 0.9932725283962951 178 193 234
0.6439980502304339 -0.2743876285922253 0.8999189668696418 105 113 115
0.9699089994218826 -0.2011863383336801 1.1420532731498911 62 47 50
0.4461510862373038 -0.0834037392495121 1.0519408865535356 245 206 209
0.5973928664390333 0.1908511851359593 0.9575614901725725 252 254 253
-0.4417404788092050 0.0472721982873927 1.2454844101298146 111 111 113
0.9020187060166553 0.2049576389303827 1.0419099326928207 53 24 0
-0.3227859801368373 0.0926520440262613 1.2474770581499983 255 255 253
1.8787179714499795 0.0827882835925182 0.8256483359958100 207 165 105
0.9491481575652929 0.1973475929711361 1.0405923232051990 149 156 164
1.1350308861185647 -0.0569879637792302 0.9054653529945486 177 165 153
0.0190036043476531 -0.2268273617882411 0.9536018895314906 237 204 173
1.8839784653643366 0.0579288320403900 0.7269118917060173 133 89 26
0.1850594203078554 -0.2664277574628737 0.9185452688898422 245 212 179
0.9867566272048536 -0.2988631933490721 1.0067134975415315 251 243 232
0.8545552348538683 -0.3397072902471812 1.0522001876054283 100 114 89
0.7320096233810333 -0.1224333616279895 1.1057126707525420 47 19 5
0.4647457483067483 -0.3014181509258939 1.0635314984939805 253 134 102
0.9648347551370979 -0.3023775482406174 1.0035796511240471 111 147 209
0.9531227397443813 0.0273658600637964 1.0399996929123130 171 157 131
0.3621150971524761 -0.3142121195605144 1.0676929738733640 246 210 152
0.1820577151476047 0.1554906711663216 0.8955670866465052 255 255 253
0.9351827075206594 -0.1403622442311843 1.1192222631925763 255 241 210
1.1513909943354541 -0.2322746896772326 0.8892435608981352 241 238 223
0.4533709017686878 -0.1158620024071615 1.0550853548901191 243 255 247
-0.4797134880462309 -0.1520445406838429 1.2638859390164285 206 201 198
0.9866632506782061 0.1114560259428915 1.0393557696080711 205 187 61
-0.2859933047082114 -0.1357306568542949 1.2825989615287068 222 217 224
1.2061092475792135 -0.3291215981764408 0.9087369264310567 231 236 242
0.6101949292909474 -0.1338811909680628 0.9565259650177231 214 234 207
-0.1376575005930512 -0.3217412687929002 1.0121768525371846 103 70 35
0.9632866017715594 -0.3270997207320152 0.9956507336308671 248 255 254
1.2028537299967335 0.3499821360724696 0.9115994708473838 249 255 255
0.8708373691508555 0.0007845688430401 1.0200621903568576 9 20 26
0.5310247877383574 -0.2119607430866135 1.0440552589871819 204 230 243
0.9321541739785453 0.0416516188679063 0.9436234008745927 148 136 140
0.8958409807918397 -0.2077493889236107 1.1413355671856849 252 226 193
0.0994496534673562 -0.2297488683078942 0.9620345544071307 231 190 146
0.1608786681115812 -0.2261386082812951 0.9142193402321777 255 246 214
0.8135147448079210 0.0533536775377324 1.0319080601714781 189 185 186
-0.4772676909278027 -0.0130216205836823 1.2492396069442404 99 99 101
0.4742331855247801 -0.3647169031247807 1.0536941640514303 243 233 224
0.6329881790707724 -0.1936595434420637 0.9340684512660955 211 219 242
0.0588488450461405 0.2497550269725485 1.0591213159794575 59 63 64
1.0673770955979061 -0.2351054158517092 0.9301400091292962 91 99 122
0.9178972655756711 -0.1985033156438568 1.1390652289409524 242 223 183
-0.4638253351085528 0.0979904716902847 1.2394274718870677 178 178 178
0.6952346628270789 -0.0366588250162340 1.0468692043268126 0 2 5
1.0928748134371369 -0.1528917801047295 0.9763022743702606 4 4 4
0.1446028656222704 0.0774054869269171 1.1696850034684836 38 0 0
1.1492790105561952 0.1617995418413020 0.9000099043465999 248 251 244
1.8869724130934755 -0.0200498331398153 0.6960892952968468 228 181 113
0.8966595546993708 -0.2540343421345094 1.1162093863868203 204 192 202
0.8595165604572064 -0.2629589674901331 1.1120987194773528 112 94 110
0.6100533349242037 -0.0861751334132624 0.9615990691203351 70 97 92
0.1612676613397324 -0.3677769227387768 1.1377273467587266 249 254 255
0.4931198883253374 0.0873237016663938 1.1286600670755969 86 65 98
1.8724847862336773 -0.0330387308548597 0.9339922369761376 36 28 15
0.1535494041625298 0.0491261477528175 1.0980890124924358 175 102 109
0.0915772133163648 0.3046150647364214 0.8738949601996220 215 213 214
1.8824276392945369 0.3844215320535444 0.8960710539845589 180 145 103
0.5410152925285096 -0.3699156109698835 1.0713136997241879 208 217 248
0.8627297387707368 -0.3877889658255770 1.0450715971209912 58 71 62
-0.2838538948680616 0.2761101735766146 0.9484339600690811 119 116 97
0.5823627640089802 -0.1835179621597759 1.0641924997457517 64 1 9
0.4315519855397448 0.3231007156565715 1.1309750670666949 205 214 211
0.9131821981132725 -0.2887272232157201 1.0258359145724645 234 227 221
0.9122953627200693 -0.2908592164480884 1.0255746472981360 11 7 0
0.5445401281698539 -0.2634910712645345 1.0514716961471904 206 235 255
0.6108800739830641 -0.1021706819543597 0.9525288640167909 206 220 187
0.6082653610825152 -0.2967802396668260 0.8751430581665578 84 88 97
1.0695695539576766 -0.0658691094368209 0.8928062259706002 53 52 48
-0.3704416794883673 0.0826125037170292 1.2460476558284030 252 251 249
-0.4786091029695314 0.0743495068775765 1.2405452364906131 115 115 115
0.8082663198643518 -0.1486178183325241 1.1143089501968613 101 83 79
-0.0393626848125807 0.0455921042763378 1.2672689392030836 246 246 248
0.1233860506045135 0.2757735276963696 0.8827780384974304 177 192 161
1.1508501596455993 -0.1605683028066406 0.8813712032765939 18 19 23
0.5212881344376065 -0.1865085719678924 1.0617507093647767 255 246 255
0.1037387224152578 -0.2979909301510583 1.0185043773708817 115 72 30
0.5318174105055856 0.0734130382669994 1.1164125203318720 2 0 13
-0.1152957005262551 -0.2976695882999092 1.0052263857033450 152 120 73
0.5450466413236290 0.0716843541160027 0.8953508198648041 255 251 215
0.5020611443772786 -0.3889631707726516 1.0672763749467762 107 89 51
-0.0592228511583916 0.0851412918574070 1.2610346739911542 223 222 227
0.5504361464033817 -0.3137482385727995 1.0505222002803456 191 198 147
1.8725264976292937 -0.0819438456658654 0.9374635075906431 22 16 2
0.1591130922635527 0.0257515055451856 1.0656274311785596 48 0 5
-0.5021214219011335 -0.1255366617027344 1.2601728622232937 192 185 192
1.2817834980112426 -0.1725771488540021 0.8891006004627949 40 41 45
0.6015843836724133 -0.1261922307842060 0.9502853453633879 157 180 164
0.9350825580961081 -0.1523301108146076 1.1221751760162852 140 113 102
0.9120843844164576 -0.2863745968311860 1.0252501391930160 6 0 0
0.5140994238297895 -0.2370694159774208 1.0477398475541755 255 249 255
0.8170550623166244 0.0253673670275328 1.0343975794163967 39 27 15
0.8600626276465668 0.0261944491187510 1.0343782576671059 27 14 5
0.8563279189595767 -0.2729657334139600 1.1129437986023363 255 250 255
0.6514393847626007 -0.2648690541897326 0.9006128420433843 148 154 154
1.4144915045393658 -0.2538277107920068 0.9116219180014566 38 37 35
-0.1488171718726409 -0.1624579403088895 1.2811216000284926 100 90 89
0.5449592247778778 -0.2182296664833702 1.0448642817382416 193 221 172
1.3606860221366663 0.0645061563420593 0.9069261293435434 237 242 238
1.3177700651604793 -0.6294215986155163 0.9171781119412673 207 179 129
0.3591281867290384 -0.3003673777248851 1.0586652210167837 75 31 6
0.0940210896792055 -0.3123827657977370 1.0119764455705726 195 163 124
1.1970272326899514 0.3056352014587607 0.9050045287251116 225 236 242
0.2063491521351145 0.1474705853939705 0.9079302319969585 188 175 167
1.3262352594870919 0.2757260000797189 0.9037042471754466 221 232 238
1.8851687430559276 -0.0867071165082003 0.7153857717506703 189 141 69
-0.4450895308534402 0.0417409397909022 1.2459888673975488 255 255 255
-0.4451364294643240 0.0417420009767244 1.2460355437295803 255 255 255
0.5152375831493422 0.1035149209817430 0.9013374310220252 211 106 123
1.2853914319055200 0.2730086403918858 0.9061030180827861 225 234 241
1.8790018627703013 -0.1376080874783916 0.8014390087797161 212 168 107
0.5633362449579991 -0.0858417563939130 0.9371161001891086 231 236 216
-0.4225747617997308 0.0248772139134540 1.2490635737906397 131 131 131
0.9138377530327947 -0.1058652111101703 0.9874167887465470 255 255 239
1.3027703478345691 -0.1005908504268767 0.8943367518038812 250 250 248
1.0723789373438266 -0.1922114136372196 0.9185748833266937 51 58 77
-0.3562692491691993 0.0607333255079155 1.2489699268816921 254 255 251
1.2926692058023590 -0.3744417721892075 0.9285289549232280 235 240 244
0.7770394329144400 -0.0543106594417853 1.0638440177621322 230 255 255
1.3724045911720726 0.0393972413740529 0.9067729847677681 230 240 249
0.2097921248568571 0.1456882155655292 0.8953720013399237 10 12 11
0.6484198982158078 -0.2260254611027617 0.8988604042280753 194 204 205
0.3759535425767463 -0.3028122046083160 1.0600889969727478 184 211 178
0.9341037249676293 -0.0820663569009450 1.0078684184818234 129 49 62
-0.1455204430679368 -0.2683442940348170 1.0527891318523421 209 179 141
1.2651293526622389 0.0498190933135163 0.9074039213858841 44 47 52
1.6098738049618215 -0.3762028804236285 0.9626873588303450 224 224 216
0.3144933518765520 -0.0339443986957360 0.8712224749991331 108 118 127
0.9643073189520209 -0.1730992380533923 1.1318497470220674 57 67 77
-0.4585740638540804 -0.1661573310248346 1.2685531391595477 138 130 128
0.2521670947562046 -0.0354669392816748 0.8623321749484189 172 182 192
-0.3203308030899145 0.1464280630099088 1.2412476472533545 160 153 143
1.6843662214037307 0.2723041843409418 0.8919481957750911 5 4 2
0.0979469791522034 -0.3394132984929744 1.0099521913479450 255 225 189
0.8764704610020847 -0.1189941449638223 1.1107586137780756 240 212 175
0.5072152423059328 -0.2469204059193368 1.0489300295026416 210 233 251
0.1033976083880826 0.3588690748322683 0.8643452254540601 219 221 234
0.9152091492274294 -0.3129016229930710 1.0173613818833811 160 154 138
0.8650897724787392 -0.3583920716308129 1.0430747914372152 22 35 17
1.0990554853947021 -0.0580964078153947 0.8932799314411541 234 235 230
0.9574742386755464 -0.1854755729128496 1.1359656894546450 242 255 255
0.1234366235166362 -0.2272599806764007 1.1204544627148176 86 57 39
1.2528973120177767 -0.1095501144471913 0.8970301299565435 37 38 42
0.8274162228259482 -0.2860960990588666 1.1107133859949163 129 140 185
0.7860954800319006 -0.0711269755948797 1.0656544215477899 168 67 73
0.9458800538485157 -0.1459101405486217 1.1217752307162201 84 84 86
0.4541646662724614 0.2858167088354371 1.1366530876864935 160 173 189
1.8757034213277985 0.2044535261332920 0.8927732262804975 114 75 16
0.9348788168497560 -0.0582554120259238 1.0261067369201902 140 100 108
1.2503565571355291 -0.1066108539012072 0.8928836519396697 37 38 42
-0.3614430979168640 0.0767292866604187 1.2468998484870426 246 247 249
0.9495564005960193 0.2816908238450816 1.0438874781633891 76 83 91
0.1570128042567039 -0.0645747055397663 1.0849152569362468 177 104 113
1.0735631507472618 -0.2773926389993080 0.8871372285835205 82 83 78
0.8883101086654651 0.2748710657268790 1.0497403493029560 109 110 114
0.4652708600053218 0.1239628455499890 1.1403557164067641 214 226 240
0.8619570889078821 -0.3245805632770751 1.0932455687362674 70 73 56
0.1027962291536800 0.3435021277073920 0.8674358240659193 232 228 227
1.3037908589914278 0.3484690696784910 0.9117950700270908 223 236 244
0.4911215332650854 -0.3211549854471130 1.0627789956999372 222 136 59
0.7635260731720508 0.0361592801284329 1.0544058709644375 76 75 54
-0.0774986539967354 0.0428177150325759 1.2642888100028293 175 161 134
0.2399220214138530 -0.0591350552124374 0.8640752517865204 142 154 168
1.8757820780011918 0.1712494552527871 0.8922453798926254 135 94 38
-0.0966452019442544 0.4080718029767966 0.9753906316942351 218 218 192
-0.0868055401722841 -0.0623780220909540 1.2754349517233547 244 242 247
0.9840312972022776 0.2572386640538731 1.0391261936498406 64 75 93
0.5266177917081510 -0.1003203125492097 0.9604484767252957 179 223 226
-0.0639962290184158 0.3419882507641376 0.9415389686707409 99 122 102
0.5188965019374313 -0.1024827544595409 0.9619092576286316 207 205 208
1.3748774496607936 -0.6210931806275258 0.9054791226953955 140 117 76
0.5199753667417197 -0.2415921944509953 1.0481161271120047 241 252 254
0.1303937394448902 0.3203619231791616 0.8713243460081272 108 104 95
1.4242795615389678 -0.1356228176918949 0.8951857733312506 243 246 251
0.5255781265453489 -0.1076399051006504 0.9536142817410530 119 134 137
0.4602611225400396 -0.1619262779311798 1.0524060969155382 108 74 0
1.3182313908465457 -0.0607560638175521 0.9023905853980659 30 28 33
0.1299219514503831 0.2966535231715999 0.8812931758753140 136 121 92
1.2210237712758256 -0.3426275215449676 0.9154981408580787 31 35 36
1.2316454273186641 0.3239945400522252 0.9084676951956410 58 62 71
0.1126340021502376 0.3188572424900833 0.8721769513201881 233 230 225
0.9356504903310376 -0.0782437345688827 1.0100778939526627 46 11 15
-0.0420418459688694 0.0522075195759565 1.2651872406522735 181 169 145
0.5226760139486414 -0.3546099951052651 1.0540142866523530 83 126 181
0.5054017050980746 0.0756144592831901 1.1255419306307775 132 134 97
-0.0800804399667548 -0.0380328809568559 1.2705333654634341 148 149 151
-0.1538008116847790 0.2496824808398381 0.9196957627558628 40 61 46
1.0345688186448865 0.0196133028518840 0.9292212199194747 254 253 248
0.9345598824207271 -0.0958765118969840 0.9935001914203834 252 231 204
0.5239603459085599 -0.2173528833718901 1.0457077085937825 138 175 219
0.4497622612893999 0.2576693673130729 1.1521123866703840 226 227 222
1.0082615458178381 -0.1060461295379915 0.9301305301791863 255 253 255
0.5291387879987766 -0.3715372272778892 1.0662273862683822 122 140 142
0.8637905636359960 0.2755169721026314 1.0830400165747438 154 160 160
0.1987526352376514 -0.2395683432774547 0.9230316812752722 255 229 211
0.1320890761377397 0.2702973997025311 0.8837186060458104 244 251 255
0.3913904485582427 -0.3669647251603420 1.1302415484184329 126 70 79
-0.0335717758734898 0.0775293488929488 1.2629720269813647 247 247 245
-0.3007960127080376 0.2686285897773319 0.9865781758947881 91 114 68
0.4934284391525730 -0.3689814456855550 1.0666002336475660 124 146 167
1.5840184714353551 -0.2439332304569357 0.9347595005350164 34 33 31
0.1543832859109527 0.2947463058691351 0.8799661015417000 244 242 221
0.8979012857321396 -0.2006271781830946 1.1364691254081900 165 153 139
-0.2869544434625792 0.0521180684042074 1.2533933834553159 254 252 253
0.9331456512524456 -0.1151726698541068 0.9907158570213964 255 251 225
1.1547037222587113 0.0325122508747664 0.9065726220378171 45 47 46
0.2077553315775799 -0.2498314393280047 0.8952365749353319 121 95 82
0.9351113488838849 0.2950864699074349 1.0452556197423082 98 97 95
0.2492914373051978 0.0117378248181275 0.8597819584016410 107 117 127
-0.1400681549872283 -0.1136685598365693 1.2779435367926515 255 255 255
1.2021593417277447 -0.0045146777338916 0.9144241577659482 244 251 255
0.6010742361136309 -0.2243860310421230 0.9352449353554981 183 39 48
0.5418819842864502 -0.3212263766844485 1.0523359464005899 216 191 255
1.6956449468117698 0.1426511619739235 0.8927842944878331 237 242 246
-0.0642369367596943 -0.1003593901248902 1.2809243974377433 170 168 171
0.5241133690602742 -0.1663439259723985 0.9887788462108821 200 126 51
0.5034141552669962 0.0917391284807279 1.1284273357833707 98 114 111
1.0643931183692830 0.1454400287397860 0.8941806598882435 88 91 96
0.5114233397445578 0.0794150089367420 0.9020750676682993 172 65 83
0.8711474597384818 -0.2913084586586179 1.0369931503704186 34 35 1
1.2683356423125498 0.2918662296651150 0.9058601353670850 246 255 254
0.5938549061791446 -0.1209749092568728 0.9449821134402697 173 203 205
-0.3664301693198359 0.0936677969955470 1.2449450313644768 250 252 251
0.5109594826236141 -0.3659958592464763 1.0539010013828305 151 211 255
0.0099755508292754 -0.2402684084668177 0.9566854332763005 249 219 181
0.7260075127424281 -0.1456390928920584 1.1300069305198499 255 245 237
0.9655050915292972 -0.3122015072201066 0.9989452099204433 107 130 198
-0.3620605464526334 -0.1410286547217885 1.2693456841930972 126 125 130
0.5208239607393075 -0.1777760737491658 1.0612838342805089 254 232 234
0.1535825958788166 0.3224279729650456 0.8781638917545115 235 235 211
0.9904372497526270 0.1374826546138561 0.9702105406934772 222 213 196
0.9896147104942556 0.2887199991215610 0.9558372663347658 71 71 73
-0.1601382543191711 -0.4149067244394097 1.1402958210597238 224 189 147
-0.1094841237321115 -0.1084825490176395 1.2797775506308675 184 184 184
1.6971976039182830 -0.2780585098098047 0.9448763046538697 42 38 35
-0.4823830047627751 0.0931536416654608 1.2382084502522768 84 88 97
0.5785301115546406 -0.3691453063944571 1.0695495725052504 217 232 255
0.5184963213105267 -0.2975931982238261 1.0517381179293912 160 165 98
0.6010436574518977 -0.1459382969291291 0.9606583369636894 49 65 80
1.6547970938807768 -0.0027661726975997 0.9206048574626484 43 45 44
-0.4966457278021549 0.1015570657300783 1.2370966106293302 246 249 255
0.9611493764378992 -0.1344042906320525 0.9565017061478693 231 165 133
0.5490144430438789 -0.1599092149899157 0.9717702096798694 255 252 254
1.4227443519303142 -0.1278242661290620 0.9015632331956878 235 238 231
0.5044475915572455 0.0521494201059105 0.8978396144990937 202 60 72
0.5574096690548301 -0.2749071194096152 1.0454782550150303 82 71 25
1.0772315691731049 -0.2761377861143920 0.9455871328579293 50 53 62
0.1083739807014573 -0.2577122800969155 0.9188474356214712 247 211 177
-0.3661815974875266 -0.1547744209450090 1.2705324789112340 128 127 132
0.9783493247030745 -0.2549961942716824 1.1167462744011911 108 90 78
0.9695538907703098 -0.1346760306382217 1.1165305832056496 38 38 48
0.2599805431718021 -0.4280356056494155 0.9022197246796656 161 174 193
0.5360327366903024 0.0942534313886104 1.1187031757380401 34 34 42
1.0008969337433415 -0.1924780759988477 1.1410052760276954 246 252 248
0.8660181329548587 0.0898592383483345 1.0329084357600604 187 222 226
1.1432401588059042 -0.3066060508682145 0.9014107378427557 252 255 255
-0.2045687491864162 -0.1669978913244987 1.2793671620035705 146 141 138
1.0271448335818956 0.1681970232452012 0.9109531993136794 255 255 248
0.9666370093281454 -0.0854182221454015 0.9380900564860875 255 238 255
-0.4996800200423166 0.0181678763511633 1.2447632838908518 214 215 220
0.9119642715009764 0.1052829233450155 1.0337484544447777 244 247 130
-0.2555356885144595 0.1459600935616534 1.2463184117891017 255 254 248
1.5490257955145397 -0.3983256468479799 0.9688354565539906 31 30 26
0.9668967108259294 -0.1748945433663844 0.9464162701721713 255 241 255
0.5167843242077723 -0.3253429149905365 1.0530561174328443 124 124 184
1.6108244420288935 -0.3872952220174203 0.9602720587835115 253 249 248
-0.0473465427429439 -0.4267508757582684 1.0329235103073460 171 131 80
0.5463864405291520 -0.2362518784774978 1.0476488039639464 133 167 106
1.1793708040467852 0.3258550068210558 0.9107609874057211 242 252 254
-0.0834935205592739 0.0434425139971004 1.2644699656444864 211 200 178
0.9292032151344534 0.3039505049590414 0.9832422208793065 251 255 255
0.5203921658530563 -0.2500355527148079 1.0497462224319027 235 255 255
0.9917118942870892 0.1596377944592476 0.9327181869185966 154 141 122
0.9666547630404474 -0.1019511462345731 0.9625942369821610 255 198 182
0.5215429248583140 0.0892392404005592 1.1216556960131463 78 76 77
0.5289053094623885 -0.3700979551755982 1.0670689420496873 86 127 157
0.5145083416489645 0.0833310744132449 0.9082112093032390 218 63 79
-0.0485816013744968 0.1477845918960760 1.2551418186175125 192 197 216
0.4177308380921593 -0.1604146363085148 1.0596330075808889 205 199 139
-0.1729980019956312 -0.1463181417824014 1.2780966457855103 113 109 110
0.1177358931198313 0.0901029003759983 1.1237679625365595 74 33 37
0.5079099359586813 -0.2695440665825278 1.0531011183534265 182 187 227
1.8770585709401102 0.1461728052904149 0.8722398282605344 200 159 103
1.0061765760394006 -0.1882075482738011 1.1399526305781138 229 255 255
0.3834165600742516 -0.0259883692084908 0.8721010626035643 181 166 145
0.9179182427761020 0.1916037584037353 1.0393474838557379 233 230 225
0.7832606172966978 -0.1613173785466806 1.1177702757570025 228 244 255
0.4976303289735108 -0.2074194592501241 1.0696612955503519 240 255 255
0.9786393202435417 -0.3300472096858917 1.0314894858254846 221 238 254
1.8875192390186077 0.1770205238401180 0.7300437594303131 177 139 74
0.2576011400288302 0.4038684976771041 0.8403781397014383 20 19 17
0.5561365409847097 -0.0297650721418070 0.8801022741723814 222 233 239
0.6117228112789642 -0.1794345743645615 0.9394065662257126 203 72 77
0.5205519014482883 -0.0586675067614866 0.9812354898236632 129 139 148
0.9276295428268649 0.1965979612331815 1.0396427541479758 66 71 64
0.7267325845897427 -0.0758293895615388 1.0612442550626531 41 50 57
0.1885024831807565 -0.2629130951521438 0.9182403924232481 255 222 189
1.8791648222460735 -0.2633258709521298 0.8305182257047989 204 159 94
0.5159941357317345 0.0819975485321476 0.9081919557811488 82 0 5
0.6080580372177248 -0.2283743324498283 0.9362440873824448 197 187 175
1.8805317958163921 0.0367919962173363 0.7934855356671027 231 183 121
1.8777625033299068 -0.2152290861512073 0.8401653412446120 178 129 62
0.5740864381928940 -0.3527121968129284 0.9956848257500750 211 216 162
1.2329051244317859 0.2460191797221958 0.9039564173407990 192 199 205
0.8012122498769162 -0.1459777990509546 1.1145863508980978 206 173 168
0.1281242233769050 0.3303987916454660 0.8806164698945994 247 230 186
0.4359132653126925 -0.3539119859984201 1.0660691687434132 231 87 52
0.5626090158872445 -0.1662799179914151 0.9550817224714339 59 52 44
0.1452785665493971 -0.2440598343521106 0.9397320810892618 238 212 177
1.2911893540436814 -0.0803743173951343 0.8977703127527558 37 37 37
0.0402554454632163 0.2911354793770966 0.8833075695971510 255 248 228
1.0145904934668539 -0.1808872397342209 0.9391338769653886 219 62 113
0.9621953151538285 0.2389190746937435 1.0401971156679037 53 58 54
-0.0104551627743969 0.2919883893234680 1.0063867093353243 239 254 225
1.8772831816110378 -0.0889093967697987 0.8535575887830571 141 97 48
-0.2572362394884350 -0.1648005141320077 1.2775738638983900 128 129 131
-0.1930129951078170 -0.1670207201466907 1.2834813841327160 128 127 132
0.6480825172337886 0.0889168480496840 0.8688896449814205 158 166 169
0.1461228106722077 0.3149219659998681 0.8753102397858303 202 216 157
0.4907349584840828 -0.0928286216414342 0.9883034503003245 190 242 255
1.8768461439400785 0.1560650066309425 0.8750421133448645 210 170 109
-0.1490435588928911 -0.1672897851580714 1.2818741313804054 137 135 136
0.4495787949420439 -0.3116049700190981 1.0597426017275189 217 74 104
0.5432625791119766 0.0767778981299021 0.8955811516251201 255 252 245
0.5836601270443015 -0.0291628403613582 0.8806785023644667 183 189 185
1.0285393533088094 -0.1074702713601194 0.9322530482906969 86 0 30
0.5108871461419594 0.0651665971109894 0.9055880839614541 167 47 57
0.5033463720121378 -0.3578039211191673 1.0541310240546209 0 70 169
0.6864637006805101 -0.0334141473510160 0.8845481150997297 134 142 145
1.5812664295971246 -0.3364292100306532 0.9536785540149476 248 247 243
1.0289218226078771 -0.1706893919441807 0.9386265519097700 142 24 121
0.4275268375078039 -0.3477328650509542 1.0636553656704077 131 8 0
0.7871855939740788 0.1902622267895660 1.0355347407534119 149 129 104
1.0273471476263232 -0.1136565495323115 0.9323258467121524 255 141 198
0.9721111657324946 -0.1231304085163544 0.9862060279078392 206 49 58
0.5254355780902691 -0.2996822861064946 1.0524684953460464 255 255 246
0.0920390245812406 0.3565666874286728 0.8641348226987861 164 162 165
1.6675530365239735 -0.2541768663480031 0.9406497787706112 251 245 233
0.5033594893888521 -0.0968378002096235 0.9899289925858920 157 214 255
0.8530703696006757 -0.1990966853458802 1.1352638876641170 227 196 152
0.7282653074358805 -0.1159877378279394 1.1004837896984287 202 135 116
-0.4242868082166857 0.0863663464131458 1.2423495343299791 109 110 114
0.9906372142678070 0.1822290766559682 0.9168116906682074 254 242 202
-0.1530651221961804 -0.4013487467880905 1.0761588738696706 48 12 0
0.8949205970589257 0.1073228898972714 1.0384160895605832 225 222 93
0.8868914423305270 -0.3201073844353174 1.0088288960178293 11 26 7
0.7884622494470288 0.0231240579600262 1.0329346178672274 53 55 52
-0.1509531607249279 -0.3799188124345009 1.0682779108054481 236 195 139
1.8813838883317715 0.3272759829481576 0.8456929212270005 158 116 58
-0.5067375730983299 0.1462906353343046 1.2322217339997754 4 7 12
1.1850196342562676 0.2668716891889288 0.9046274914031228 56 53 62
0.8683034821549761 0.0539319010836999 0.9501216893415639 238 211 168
0.3734716575321637 -0.3209656483787421 1.0663663873251639 250 217 163
1.8777521538826865 -0.1111931824608089 0.8629998623432463 220 179 115
1.8779628352190709 -0.0287423332624698 0.8690251672748688 208 170 108
0.1007894085294228 0.3069942065916219 0.8769214775533163 175 176 178
1.8784692837217618 -0.3081220097802285 0.8914102644095062 195 155 96
0.9877673539816206 0.1684730956598254 0.9212149702447826 255 254 240
0.8070398319656744 -0.1618738849769361 1.1208609360091952 204 194 193
0.4515047300982046 0.2918500711850038 1.1282184514014253 218 231 237
1.8828505400385867 0.2260638140771877 0.7875798126296412 226 183 128
-0.3073883894605962 0.1118563085320161 1.2457664211626189 244 243 249
0.4130526400640454 -0.1589393044795169 1.0611671345448024 157 151 89
0.9432046808726574 -0.1719642137790114 1.1303113506806761 0 5 17
0.9351152314973857 -0.0977711952252092 0.9927627353059604 255 244 225
0.8550985303538812 -0.2985197685212405 1.1106936966465510 132 116 143
0.1198486241888945 -0.3947257110911681 1.1642318608925879 159 135 111
1.8793483575526426 0.1412356636874693 0.8304160948284973 210 171 114
-0.1884110123860538 0.1527462268879257 1.2334283605501581 165 167 164
1.2559391318606983 -0.1505273864865920 0.8890358772125362 240 241 235
0.5761747110808229 0.0724383073334608 0.8973764601999097 175 154 107
0.7876949779472693 0.1905250271359575 1.0361012522355597 67 47 14
0.7650172188032660 0.1881737061523248 1.0358108206647252 93 75 65
1.0379633337369236 0.3393119169926019 0.8742152500002489 141 137 134
0.1574217745369301 -0.0418563007579715 1.0687749129042377 116 59 65
0.8746779073888418 -0.1836061771651636 1.1306431411028623 229 217 191
1.8825923376029725 0.1853967100635839 0.7798443308987139 216 181 125
0.9770760343748129 0.1506949042734257 1.0336182505171723 219 220 215
-0.2911534059229172 -0.0422966960964805 1.2626775148520470 138 131 123
0.4842450391687845 -0.2070882937921906 1.0687680208948052 76 144 205
0.1908030930018088 -0.2657617795330361 0.9139320404075586 235 202 169
0.5028708796740909 -0.3547887601278629 1.0530782986970595 94 153 223
1.8858106199431786 0.2117336949104643 0.7246521455578070 220 179 117
0.8377284333777442 0.1330707131304617 1.0463804147041991 252 148 113
0.2481881665544877 0.2406787292432788 0.8421130949749945 157 131 96
0.9879658232723314 0.1709140768421780 0.9207529339464441 255 255 220
0.8987961552513187 -0.1632306579097651 1.1253373311490384 89 56 37
-0.1504058031442203 0.2566987797843389 1.0076508838477880 34 38 23
1.6240757109168822 -0.6327375233060577 0.8347712758676072 251 240 195
1.8739749329173585 -0.0361234289295039 0.9317685473368661 178 140 93
0.9860055020590967 0.1657046420707152 1.0345038682699805 245 250 255
0.9480811026331228 0.1973471480307709 1.0395593382575341 253 254 248
0.4266873742932735 -0.1335623419574766 1.0677533638154870 191 191 153
0.1671830874601478 0.3026875061602385 0.8788538205887334 246 250 249
1.3369704681046239 -0.1106659641452268 0.8953202488832495 239 240 235
0.8523820393069974 -0.2798938746397877 1.1121752005596675 136 94 134
0.9872570838943810 0.2643328626176490 1.0376278689165650 68 77 72
0.5931874952291946 -0.3874618023410361 1.0720514060183826 51 38 32
0.9654692372796667 -0.2820233577203925 1.0225885406454494 222 208 195
0.8826811688867578 0.1892991778924496 1.0394394251876755 56 39 32
0.5259586221444448 -0.2303884714757718 1.0475432961444260 173 207 245
0.5561830753522662 0.0722461014278533 0.8957179060017832 127 125 128
-0.0307099252321203 0.0969565947302126 1.2591808777565843 216 228 242
0.1586524580828456 0.3214558520454817 0.8747944342956855 191 193 146
0.9638692173927811 -0.0432097629281803 0.9372282818115562 200 138 139
0.2538264570808654 0.3402259060113783 0.8354371851642149 148 125 93
-0.3408301811632468 0.0566400210523704 1.2501352233596696 242 250 252
0.6039302882339502 -0.2184703584533193 0.9326189213380016 255 247 116
-0.4575570392298708 0.0907353066876769 1.2420214943273460 108 108 108
0.8184080504942987 -0.3163733084846211 1.1102852025901939 199 193 219
0.9344524076087924 -0.0626842052127278 1.0005885016937421 133 65 76
-0.0746936579535089 -0.0873569710632886 1.2748776360942164 145 144 149
0.5573397231961249 -0.1067359121802308 0.9422623448944685 33 44 50
0.8190738297086266 0.1030721836276021 0.9208955444416007 243 213 175
0.5524909774962854 -0.4105741857166594 1.0693395131115615 0 1 5
0.5830265187896679 -0.3959124767609951 1.0887175033558827 25 7 0
0.9345778707079385 -0.0659460010458049 0.9997733407843162 120 60 70
0.5180500038408800 -0.2667291365830735 1.0631666126929991 5 63 170
0.2984068723288954 -0.0400895723067827 0.8694502563542227 134 149 168
0.5570052812692258 -0.1117516490548599 0.9410010342995678 0 0 2
0.8214846503783985 -0.1649152140745717 1.1216850419234206 207 167 141
0.1494369203754205 0.3562909758989779 0.8663797638522395 254 255 250
1.0139469506104015 0.1021152563452082 1.0417197557743514 170 147 53
0.6330364892706455 0.2197903695698046 0.9712317555322514 238 254 253
0.9986195574860068 -0.3500988372773698 0.9439656007131978 47 53 51
1.3872046377818721 0.0192605537412969 0.9090451158551855 252 255 255
0.7388086436199571 -0.0661480979824571 1.0773545619677525 172 191 223
1.5666577226523402 0.2797111205803945 0.8901566584520280 42 46 49
0.8531423338870028 -0.1825577921918926 1.1293679977682760 101 71 47
0.4232343065745082 0.1766637037174140 1.1645839871924817 180 180 168
0.4546059162381550 -0.4113251541029653 1.0962325300296334 164 135 91
0.1400853391200873 0.2737751657447879 0.8839634851683094 198 211 165
0.0117563403509342 -0.2257843630902753 0.9547494839332981 244 212 171
0.6042694716750674 -0.1086109297620365 0.9501761121754511 157 195 204
1.3981341425988363 0.1848013625738822 0.9068294486386407 243 252 249
-0.4338907451921043 0.0209183473574458 1.2489461572213671 242 246 249
0.1727889370349215 0.3192957407521348 0.8751864148770286 195 199 198
1.1540289406932891 0.2669554163784561 0.9054146942284342 42 45 50
1.3532935330065960 0.1823996585176780 0.9051804124453142 240 249 246
-0.0041068431646777 -0.2290090256438117 0.9538293752443003 246 213 168
-0.4993102369304447 0.0381942369965999 1.2424818038867269 226 229 238
-0.0300328664132334 0.0032724409191111 1.2702590434992249 224 223 231
0.9975495601028841 -0.3378180350737579 0.9584342490217738 35 10 5
0.9647509687650252 -0.1324819289038719 0.9425770005460384 169 81 93
0.8982000065654117 0.1858130147893755 1.0422819541576742 255 253 234
0.9361712206270727 -0.1129671515363080 0.9910803747100990 255 252 253
0.1524020405133836 0.3166439696113035 0.8773688770483533 250 240 168
0.5031638384771566 -0.1027995909537504 0.9942020119521295 53 81 102
1.0089451329488899 0.2164409926401105 1.0303796151204669 155 146 131
-0.5013474570295611 -0.0328979653735934 1.2497235229633559 220 220 220
0.1086945901125701 0.2759809535701497 1.0429992891651436 14 18 21
0.1855122066800363 -0.2167773905297297 0.9052945848744880 234 213 194
0.8263280184900562 0.0424877987863209 1.0365908326108060 220 223 228
0.7699775247781859 -0.2982525491805805 1.1863388755673818 69 139 173
-0.0450166024883275 -0.0662283675012444 1.2775284469280550 132 133 135
0.7978222643779743 0.1698831313085709 1.0506105380770676 171 188 214
0.9916201296693549 0.2144472267335929 1.0347534782064240 61 63 60
0.9802115494485778 0.1513283521923315 1.0334009859548325 58 57 53
0.5546913640298143 0.0825069697867004 0.8966526317263566 252 240 156
0.8526580824036873 -0.1612206210426906 1.1224613164380104 185 167 153
0.9084791852324713 0.2565626165684768 1.0447373401046238 168 172 175
0.0891426588038334 -0.3962113264381776 1.0205070244635774 180 145 91
1.0077510483923511 -0.2879410777453179 1.0187447362500563 255 236 238
0.5215086222516491 -0.2684861223192900 1.0486883142021564 239 254 251
1.0071243490503161 -0.3845078580880190 0.9415824170961320 243 254 255
0.5272275790641329 -0.1303098091814032 0.9849275521505874 176 192 205
0.6196524287714852 -0.2287676265799098 0.9390417292395500 77 41 51
0.9085964634375295 -0.1020855326652381 1.1068569844352425 222 197 167
0.4814809241591984 -0.0877292878386926 0.9913358052999556 255 251 216
0.5563783659933329 -0.0737888334343861 0.9463161618098070 65 49 16
-0.1905484647773756 -0.1482832903793509 1.2778088825217675 105 101 100
0.4020872849925894 -0.3113107193024961 1.0567979081418779 255 147 132
-0.3584710089526393 0.0546395039275412 1.2303601640372601 170 171 166
1.0334033236659159 -0.0222429096458770 0.9037762472032389 6 2 1
0.4935026881126273 0.0637171205027252 1.1265156801664697 143 102 98
0.0607652411850691 -0.2389880749852218 0.9479906845773532 255 234 190
1.1416780329748886 0.1169454642181382 0.8989612938288369 251 255 253
-0.1947459208289577 -0.1540427479217585 1.2785771997520381 254 250 251
0.1087591327636657 0.3033684344200208 0.8764378811144523 198 201 208
-0.0874970762904333 -0.0234029610653668 1.2719274629020667 124 129 148
-0.4360346482711441 -0.1301834561870397 1.2630471629042885 223 221 226
0.1532027960521281 0.2749829888465267 0.8860944095378864 254 255 249
0.4982392449029895 -0.0769918171419526 0.9983165446235828 29 1 0
-0.0336068466480046 0.0915747520843343 1.2614137122720666 131 131 131
1.2469231346208196 -0.0535353389153755 0.9007166809711727 1 1 1
-0.4373001033096525 -0.1460074031749033 1.2659027276358552 118 118 120
-0.3154151122953944 0.0207720008715954 1.2552658241829269 242 241 246
0.4734725539440762 -0.1136703080081032 1.0561551229313286 88 126 162
-0.0461776227764973 0.0090575973774012 1.2979419203194811 219 217 231
1.0022730776959805 0.1875473296066532 0.9104646062740135 213 199 172
-0.3787625759924015 0.0306239410476787 1.2497166373741293 233 233 235
1.4147510503527496 -0.3767785130322120 0.9280388675431388 201 202 206
1.3057975969480811 -0.3288129124713340 0.9105169682780311 228 227 232
-0.2491241928857529 -0.1653731615706971 1.2772070624394516 216 207 208
0.5360870249111382 -0.1332017195146165 0.9590491812456211 4 13 0
1.2644092564271912 -0.1104381767294439 0.8925145541549140 229 236 242
-0.2470615113153924 -0.1593336854479972 1.2770184571954915 253 251 255
1.8789298007476729 -0.1556248908529724 0.7928475708148216 201 158 90
0.5012662723461513 -0.3907466776915914 1.0669688562093076 203 155 91
0.5113098918710987 -0.2790720178367847 1.0540194398632126 73 119 194
0.4950855782804189 -0.2152329264657204 1.0699542819207517 0 1 13
1.2273288767585413 -0.1333149618123815 0.8873001805847247 53 52 57
-0.2688514839055959 0.1502167985236438 1.2392283523518555 195 187 184
1.2372756540790231 0.0036870555688300 1.0213874781253449 246 255 255
-0.3085900827479522 0.1341286160073642 1.2489057129846028 91 91 91
0.5583576504728163 -0.1366119218760194 0.9521520684511383 175 179 164
0.7766117053997580 0.1897462473474355 1.0353589536266314 253 251 200
0.9555881703612175 0.0999857992796253 1.0383555657694650 37 34 1
0.5523228775530007 -0.1778804804396572 1.0628451572551978 253 250 255
-0.2983294247857326 0.1478200331641946 1.2443675015941091 128 117 111
-0.3070941313057579 0.1264494289926947 1.2439503893580826 90 94 97
-0.5062262798953675 -0.1690608227968692 1.2604855067633804 18 19 23
0.6334655750163092 -0.1057279262534677 0.9731315545260669 253 250 241
0.9703587028736879 0.1689033569461757 1.0361479397300664 122 121 119
0.9425993072362105 0.1767726758886957 1.0394637870208059 191 190 185
0.5066600650628496 -0.2549512351105114 1.0497209460440946 210 237 255
-0.3070766972290749 0.1343754280710789 1.2436057331958674 133 128 125
-0.4945975714625952 0.1043783229086426 1.2344270300557549 255 255 250
0.5138622428086261 -0.3022024789061538 1.0538388773316707 192 140 126
1.7442135737231057 -0.3157165469075874 0.9533982048875853 227 221 207
0.9875245133069541 0.1823846005541685 1.0339559084167860 255 255 251
0.9503372698311668 -0.0960282461559679 0.9694107289926475 235 75 63
0.9890627490657209 -0.3387148189339181 0.9628749973729699 255 247 250
0.1172319209762556 0.3518265922754296 0.8662667959504451 215 213 216
0.8247847282669247 -0.3061572991262018 1.1192137323487943 229 213 223
-0.2091428401382819 -0.1452691720448992 1.2769652730079881 128 122 122
-0.1757490193376056 -0.1529416677200078 1.2794889332708099 83 75 72
0.7684270305937720 -0.3436756209856394 1.1900240819396175 1 8 27
0.7281601182722857 -0.1745186961603537 1.1216589187388097 246 255 255
-0.0941519554934632 -0.0422013084905563 1.2720285903751534 86 87 89
-0.5049037027166108 -0.0056562395676241 1.2463048043553482 12 17 20
0.7728869615134205 -0.2954704952823047 1.1846656894811840 83 132 147
-0.3374631384676266 0.1492532207821501 1.2334654653970938 84 82 83
0.9457973029744243 -0.1905669992229352 1.1361723781103665 218 228 229
-0.1108490598430980 0.0137169587495991 1.2652846283038712 96 99 108
0.4078649540267262 -0.1105141700608340 1.0527859068371523 248 255 254
0.2360289501314337 0.0712745853697434 0.8535653643462883 127 127 125
-0.4712281955898328 0.0135434612439707 1.2472913798654559 92 92 90
0.5981372117526783 -0.2945703952599118 1.0391412759197609 208 213 111
0.5311574752581854 0.0541596525430381 0.8995871252449023 159 15 25
0.2072934627993462 0.2597195897515851 0.8933062508446942 222 229 237
0.4449344868079041 -0.1598921028307241 1.0502520310486936 232 211 154
0.8333557151890877 -0.3491765272346760 1.1165351223003002 252 239 223
1.8851198929077577 0.1872634290292056 0.7031416598458703 40 1 0
0.5308081863392197 0.0636076211031138 0.9057243134696626 214 73 81
-0.2401953482760507 0.1566360032607269 1.2454790507769382 238 239 243
-0.1030330555900423 -0.1556872688587212 1.2834779824862199 86 73 65
0.5232218368732436 -0.0723980299033605 0.9980997594157088 114 114 114
-0.3425295741407015 0.1145828250586979 1.2440009439257214 250 254 255
-0.3203792836329072 0.1390143634314684 1.2410652260340138 255 254 255
-0.1081919024952180 0.1515332837904994 1.2502198285780284 132 133 135
0.9327838446422480 -0.0741700959992616 1.0093907512821809 53 29 25
0.4709279958898455 0.0541372131909816 1.1307860082732533 202 178 134
0.4621604715123178 0.1337461100219534 1.1449155736212278 3 1 2
0.7344969470010583 -0.1391902795528042 1.1100395733575450 184 80 43
0.4457713594422510 -0.0329645404734033 0.8750506078788971 175 155 131
0.1099512805625731 0.3447222706205441 0.8632620674598033 108 107 105
-0.1435101751636893 0.0132578684448114 1.2661370539085584 220 222 209
-0.3206111462397287 -0.1284095087489721 1.2698298924009035 187 185 188
1.3163003073062924 -0.3979190725476007 0.9329814069815265 1 0 2
-0.2809056728174075 -0.0173034273219702 1.2610211799387605 109 104 98
