ply
format ascii 1.0
element vertex 696
property double x
property double y
property double z
property uchar red
property uchar green
property uchar blue
end_header
-0.2211573276960412 -0.0070975210826348 0.9667720444782707 111 101 102
-0.1605379174889773 0.2043538817605584 0.7783991803579999 70 85 108
0.5204461894659330 0.1731872500313049 0.9063725018788265 80 103 117
-0.1656965979555765 -0.0225499230828669 1.0015293914258638 67 63 62
0.1771737788064770 0.0590751922767674 1.1703278256938541 96 85 83
0.0828575517472923 -0.0187100654950207 1.0911647878004884 155 144 122
-0.1843346541299288 -0.0250288835778847 0.8214834007311382 191 196 200
0.1088982916588086 -0.0193458418988973 1.1049663176456155 154 154 144
-0.2076478579666807 0.2089289655746578 0.8831188989243615 42 56 67
-0.1785126399337496 -0.0088363915254868 0.8218304229267659 126 117 118
-0.1740539859772378 0.0339466155364033 0.8097648564238928 112 111 117
-0.0975316510023685 0.1006281946964809 1.0084094632042928 136 136 126
0.0070004369800318 0.2472235340530538 0.9620823360278438 43 58 65
0.1048918949274477 0.0803401724698517 1.0913488559207067 107 100 90
0.0194666209281526 0.0425957651302415 1.0407467623209219 135 135 137
0.1929061947225454 -0.0441849388852877 1.2023028867764449 163 156 140
-0.2320999391037040 -0.1416420245817746 0.8379311832642371 123 130 140
-0.1710115284602842 0.0076417411756781 0.8213522213210678 170 167 162
0.4438773324505275 0.0551823234299595 1.1538852131694695 44 69 100
0.4161981371585222 0.1861598416480061 1.1024697559677767 102 87 84
0.0183026970911645 -0.1213153365222161 1.1256113475757550 47 61 96
-0.0646348273477274 0.0834542806088674 1.0283164750832330 146 145 141
0.4774477614458760 0.0823991006522205 1.1585099669795274 62 61 57
0.3019492777479785 0.0630772742397298 1.2372862706524457 134 133 131
-0.1862631757272739 0.0038513049370254 0.9811702596514980 144 151 179
-0.0958579522721526 -0.0603387936297127 1.0537891722967263 44 63 93
0.4893894766646648 0.1715743688304834 1.1456777195151910 87 62 84
-0.1687163336489570 -0.0111913167080837 0.8556024290989732 129 129 129
-0.2089785725981479 -0.1148794294902442 0.8312763677371720 155 151 150
-0.0897807744810326 0.1984552013709799 0.9946082342324334 53 52 58
-0.2469404295349214 0.0875651581857555 0.7602505447889242 75 63 83
0.2034444852251099 0.1539469756206496 0.8588745855330195 54 51 36
-0.1733025689944154 0.0887980034861125 0.8049341135695720 185 181 178
-0.0819696385655388 -0.0311750608697171 1.0413830803851996 97 92 89
0.4184038111447693 0.0370913844466880 1.1362355381340912 127 114 108
0.1527942510109111 0.0713598336141522 0.9750427136495363 99 125 152
-0.1471553590195445 0.1248516753558954 0.9809503387106726 101 102 106
0.2543505110832455 0.0100306040313701 1.1120917394088958 100 85 78
-0.2196790609339849 -0.0787290712500304 0.8061122629420588 129 106 75
-0.2216798669583762 -0.2168045904089972 1.1353477444708735 33 46 39
0.2823292742005112 -0.0321996566708211 1.2554215828832689 53 60 53
0.1932304538861242 0.1069881020749608 1.1672149085886399 148 141 131
-0.1712841063986582 0.0804994958757459 0.8079812937912266 182 179 172
0.0284639413736626 -0.0261875958164276 1.0643185192361693 131 117 108
0.1492721358897390 -0.0887925986267593 1.2372712233862018 27 43 59
-0.1549642396454871 -0.0739186881141037 0.8602805407745485 131 130 125
-0.1932213874408272 0.0788783983472017 0.7939511357947929 87 68 70
0.2621464196260555 0.1032146945549607 1.2072010992709044 67 85 97
-0.1616937407662802 0.0327846024432176 0.8235529619790891 128 132 133
-0.1664449329576816 0.1560295612612042 0.9620578100092935 111 113 112
-0.1766385469109532 -0.0863940364750011 1.0125492090961667 148 136 124
-0.1942661248781843 0.1783212539943734 0.9461285989961512 59 55 54
0.0480618263981724 -0.2083787329980918 1.3140131009096898 139 136 143
0.3164918368905077 0.1911655468545505 1.2037472332800898 92 108 108
0.4456322238061185 0.1804962433283067 1.1223180421984356 18 27 68
0.3030508017829732 0.2353087794928941 1.2044397077713989 53 40 57
-0.1080589190647673 0.0339126110578362 1.0229286485549576 142 148 134
-0.2731886906630044 -0.0493210097636376 0.7783186912250716 148 152 135
-0.1635000163181076 -0.0081609492704425 0.8271092995443277 194 194 202
-0.2071997856083710 -0.0235680004364808 0.9763853936570308 122 123 125
-0.1775039266486427 -0.1133512308365904 0.8607263797366966 112 135 169
0.0111656402456869 -0.0270659939980450 1.0543875811963155 183 170 151
0.4799261516545825 0.0816441359750972 1.1598482930598664 158 153 134
0.4344192009027283 0.2576764197384910 1.0945942973959155 38 39 67
-0.1935433438468580 -0.0528129827234659 0.8225029506209616 88 79 82
0.4441238548879006 0.0879106129498480 1.1492453486591505 40 44 81
0.3637549887925870 -0.0108459900817162 1.1385418716565248 255 255 250
-0.1977168754703656 -0.1443759869165130 0.8743750311956335 110 139 171
0.4089680383736639 0.1206200160459291 1.1134845653116690 91 80 76
-0.1644675404167394 -0.0272672708841070 0.8511122614148268 108 105 116
0.2173475341345730 -0.0440637050069102 1.2167278857659081 160 150 123
-0.2180590784831953 0.1182528246434014 0.9433778272069496 148 156 158
-0.0052992343958164 0.0682603753334233 1.0270622314166600 130 136 148
0.1200379886422401 0.0927724941216421 1.1021349984596582 115 128 134
-0.2707476675821415 0.0859815056348009 0.7502212580705536 95 77 77
0.2741759613949363 -0.0504776887250646 1.2474538936305826 114 111 106
-0.1665823977472674 0.0426754923631789 0.9865386457820148 143 131 119
0.1138176540160850 0.0208479854410904 1.1450408850324467 115 92 98
-0.1778455601254226 -0.0644707626999096 1.0060226077025289 123 122 127
-0.2657060789955391 0.1787776438085566 1.0883678034568418 245 252 255
-0.3195944573237075 0.2084220789632210 1.0965097720026764 84 92 103
-0.1782060397416734 0.0289439801638653 0.8127922538828851 170 164 166
0.2330405469505182 0.0645725771503651 1.1985861507694415 137 134 117
-0.2281896718652008 0.1745443580097611 0.7354438534712719 183 174 169
0.4500018747782186 0.1561533936822846 1.1335861887866916 25 32 24
-0.1358649052158427 0.0754386529164527 0.9909821855363338 139 144 147
0.2100942275796790 0.0022191958693236 1.1776905093447589 130 115 92
0.4368406439313764 -0.0431908548624288 1.1670657490215623 68 101 154
0.0491458889100854 -0.2038547644839054 1.3077741452293299 185 184 180
0.1025334650675849 0.2316215668542551 0.9300423817083970 52 58 80
-0.2625187960374208 -0.0686752511665676 0.7888270439168389 70 69 85
0.2020341973317690 0.1030164069937393 1.1729097754382332 47 61 72
0.2149387663428543 0.1158228369320765 1.1719388942600548 112 113 118
0.5077007791655307 0.1869422161458187 1.1550968449796568 73 74 79
0.4295809636553343 -0.1324102766094039 1.2450048070487472 136 156 163
-0.1769528514037108 0.1821731371537714 0.8354691980022535 43 47 59
-0.0416931015145489 -0.0399900336767258 1.0712912371407828 12 41 71
0.1966969694205234 -0.1553285696730607 1.3453525425471793 120 135 158
0.3006379932208447 0.0812189166327032 1.2328693898768346 107 110 117
0.3854537600011779 0.1367597351422382 1.0985294282115814 169 160 153
-0.0646688982946278 -0.0322982196817525 1.0491117139804103 146 141 122
-0.2144724397996459 0.1457964962612141 0.7693815178746120 52 60 63
-0.1792922102054997 -0.0619472178269987 1.0056497490858953 173 176 183
0.0389826167678021 -0.0335345063247456 1.0770259715892785 100 115 136
-0.1993228792104279 0.1380220945690198 0.8801101017377390 124 134 133
-0.0036755626155179 -0.2485176356782168 1.2544898494339052 215 247 255
0.4105910289963230 -0.1605076770544691 1.2598987581128007 89 100 122
-0.2502992454119614 0.1451221253441170 0.7489492682411045 202 188 185
0.2964586396060198 0.1563819128456705 2.3504641138696720 47 71 105
-0.2238918529704863 -0.0250846997924643 0.9691562392768654 124 133 128
-0.2705789208896208 0.0314493751085390 0.7643129186657671 99 80 74
-0.0040713550872078 -0.2551026253079620 1.2745287002799710 234 255 255
0.1191486691894567 0.2476087813654352 1.0563778243390043 98 109 131
-0.2475131807644890 0.1592198150326970 0.7436038094507371 117 119 140
0.2506822645003070 0.1876967441693087 1.1820414099544048 137 135 146
-0.1537637825712593 0.1733498963009608 0.7956492637497509 53 59 71
-0.2701666710304585 0.1094999739756817 0.7457381643337269 86 65 62
0.4001510064522505 0.0907203857726847 1.1149000858935612 162 146 133
-0.2697659156766331 -0.0030795323595433 0.7706063256941614 77 75 78
0.4977955957046448 0.1965532603105734 1.1414261460381649 98 109 105
-0.2027925482401479 -0.0281980900950036 0.8125357102649513 159 150 145
-0.0727115434490575 0.1240115612963725 1.0200044439344771 74 75 77
-0.1614817200660880 0.0833851335104041 0.8199782711939687 160 169 166
0.4186189527263073 0.0382660259058215 1.1364743486729159 113 104 99
-0.0307129711854474 0.0411112923683828 1.0615749311476532 91 72 74
0.4705461379936687 0.1885473925778590 1.1318426633011682 76 65 71
-0.4037889272429802 0.1853090004297188 0.7694224295703589 159 62 131
-0.2880366976043848 -0.0491304246668412 0.7685845280853828 255 255 255
0.3804210105713769 0.0759623734288496 1.1066804362068325 166 175 146
-0.2690805616642648 -0.1904812559646574 1.0719411967706993 62 70 91
-0.1419976149114300 0.2146645434703304 0.9174759845170896 100 117 133
0.3742414333509358 0.0961953715559456 1.1131840138674189 127 137 138
-0.2230860337481066 -0.0028399485735252 0.9582880716538543 88 85 92
0.1954141254823641 -0.0398811669140670 1.2031121787867145 146 137 130
-0.1508575796173744 -0.1893536829618494 1.1596558885194497 27 49 90
-0.3556776311722332 0.1985047551199431 0.7441547645524803 160 141 109
-0.0421251198335716 -0.0806775377513866 1.0791190477361299 119 117 102
-0.0025505183136326 0.1002900444250765 1.0270149693451203 138 138 128
-0.1970676857033887 -0.1120174780080629 0.9028601639591588 115 121 121
-0.0686212102192037 0.1284984362374737 1.0231896878392470 85 95 105
0.5079139832547517 0.0974063951987939 1.1742588815555770 103 105 104
0.1234737318083160 0.2349454890606029 0.9301654659897368 45 59 72
0.4193949623562309 0.2096320193489436 1.0992571392510928 55 56 51
-0.0993731541284715 -0.0224020755677467 1.0361859581360209 149 147 126
0.0546290112517678 0.1362513258790886 1.0556768273823824 80 88 109
-0.1726756290044708 0.1070984750809035 0.7985966095429043 129 124 121
-0.1847929430599500 -0.0672978804602830 0.8306440011213498 122 101 100
0.2509579389159628 0.1470016233902049 1.1839555356996125 121 110 106
0.2376057869111664 0.0221834808802966 1.2101344290341085 108 89 83
-0.1424099877788721 0.1953438779447507 0.9707533309235472 63 79 95
-0.2171259777976519 0.0557720075185344 0.9379322706714495 102 98 112
-0.3224060152417991 -0.1997584642662822 1.0585113659111665 71 70 110
-0.0525513300628375 -0.0867739392789398 1.0828322026812354 126 122 113
0.3105107935597713 0.0412993787217835 1.2440890001834943 158 154 151
0.3020249541788036 0.0834301576574499 1.2322002826606311 104 106 121
-0.1706205851391862 -0.0042079737472393 0.9915570373097226 129 116 108
0.1117684122463966 0.0363096946076412 1.1436304852248389 145 128 118
0.4616840524268463 0.0386242403536387 1.1585173634287151 174 174 148
0.3427666899303928 0.2028482147204509 1.1501193919590569 62 65 72
-0.2532106309529862 0.0872975419806049 0.7601868694821701 92 75 68
0.1815613337067004 0.0147239875768115 1.1829031203646974 107 85 74
-0.2353612935078619 0.0891327909402884 0.7793683495239125 101 112 134
-0.2695576858186887 -0.1688559249452394 0.8463151914032807 149 178 182
0.1447694813571619 -0.0624435437131032 1.1779227729967563 179 180 174
0.0989043460690247 0.2072149285207716 1.0576692304108124 72 71 79
-0.2486236621452097 0.1118065621186539 0.7567403835673798 171 156 135
0.4446344185445370 0.0472945783517597 1.1558237035147514 56 85 115
-0.1891948432198630 -0.0308181407066369 0.8201379369508021 99 90 93
0.1691619992957444 0.0868397325265511 1.1605544011844238 88 79 72
0.4090203488843776 0.1330542600820571 1.1107658860465373 121 101 90
0.0869842650123216 -0.0164000759809862 1.0205968760789510 116 106 104
0.4079832357691937 -0.1551013053132372 1.2505673056211883 63 48 133
-0.0335572219640763 0.1003572149680361 1.0460740004417675 65 56 47
-0.0505721514814837 -0.1837047718272513 1.1885908269053369 123 140 150
0.1267609369119690 -0.0239403106710379 1.1610480272521686 134 140 152
0.5077124681643709 -0.0076839702270562 1.1891658970358585 75 97 120
0.0466428903934357 0.2025447497387143 1.0423919577734782 80 78 91
0.3252077134337060 0.2877505262864742 1.1550605335899040 21 37 53
-0.2295998699302903 0.0840962169403746 0.7799347427383853 45 56 74
-0.1054784917409753 -0.1993464412539766 1.1983928748119028 92 88 111
0.0703848416727909 -0.1834586241676089 1.2537362244557650 177 187 186
0.1773651248515962 0.0109263611731541 1.1803402641675058 123 99 89
0.4671138895221036 0.0573606842057648 1.1581931653323565 169 169 159
-0.0755241600391882 -0.0303829251939867 1.0441986279920721 110 100 99
-0.2574118455374730 -0.2171449390599761 0.8939754693601450 54 75 102
-0.1998315384433174 0.1301663236848416 0.8826758503494354 96 95 101
0.4430372362586955 0.2126109178154751 1.1096637534893041 20 21 78
-0.1582929921989591 0.0035218714655822 0.9988269190427486 104 99 103
0.0087419157564009 -0.2126176057176840 1.2674962956535960 213 246 255
-0.2200572502417150 0.0167790053115641 0.9479393607520727 117 122 125
0.3784742363026659 0.1017537537859057 1.1019258731491728 113 109 123
0.2797782079795806 0.0584858661980459 1.2390311366993818 30 33 40
-0.0481653228885248 -0.1932998059248100 1.1995435579113316 34 49 68
0.1674029536883056 0.1524285354210120 1.1439290947421568 140 139 135
-0.1952201438832570 0.0169984123922907 0.8981885649311331 117 106 112
-0.2226113946588985 0.0671965801775357 0.7782925125578554 99 94 100
-0.0043367879186722 -0.2686632293852115 1.2874541497909571 251 252 255
0.5812734806122902 0.0850566434271729 1.1667524158834570 191 223 255
-0.1366708928337224 0.0430202586130863 1.0122704159893001 118 128 155
-0.2193126991052393 0.1279108869982533 0.9407543831215383 46 44 57
0.3199133098827829 0.1642835774920720 0.8564247502679655 2 21 28
0.3824925440399386 -0.0764562474289019 1.1984138776276805 116 109 153
0.2502603915320654 0.0802063204236583 1.2057712703935497 106 95 93
-0.0890363359896802 0.0510454109498280 1.0272981872267342 83 66 74
0.1777509831113248 0.0591246953947412 1.1694963294491951 140 125 118
-0.2904377376249730 0.0277417663775091 0.7527686033431411 255 255 255
-0.2690526879009285 -0.1637561834128586 1.0659931007117087 58 63 82
0.3937882773620957 0.1477474089916413 1.0978541520051777 103 87 98
-0.0780224807220743 0.1606319807303673 0.5657348889774935 82 85 136
0.1356230552784684 0.2370278383999312 0.9244984460717917 50 63 80
-0.2487166390417809 -0.0169703789916776 0.7848969931143309 158 158 150
0.2794389455520685 0.0408555855379082 1.2275864088484119 97 91 91
-0.0541611848534059 -0.1981597186035777 1.1899852084157299 54 53 71
-0.2716466134247233 -0.0229418902012376 0.7712143059214811 130 150 149
-0.2492890436378592 0.0582268518869669 0.7684134836176703 62 57 61
-0.2486697584075089 -0.0218815445911568 0.7855740822112762 134 127 143
0.4006977559035952 0.1584840826750775 1.0988675809758008 114 98 101
-0.2590890133629334 0.0901115439525163 0.7539472025574862 74 82 95
-0.1666602227361809 0.0379717262557178 0.9882609937046213 72 70 58
-0.1655032342245540 0.0872847173488181 0.8257517697050291 50 60 61
0.1081199672279975 -0.0476491804677822 1.1372903698957577 95 119 155
-4.7510602066894041 0.0623614866198830 4.5606586675117899 168 172 171
-0.1735525843707930 -0.0505921428143044 0.8323392754037978 98 88 78
0.4832594360540776 0.2217744143292777 1.1317420819892974 91 70 67
0.3797328731759244 0.2361929000415959 1.0762355066784557 47 46 62
0.2356889314170009 0.0524829745970255 1.2031833773482976 118 98 99
0.1007357109961289 -0.0654698158588964 1.1493661968467324 110 145 187
-0.1797701633625634 0.1044763784196715 0.7948473896400952 172 169 154
-0.1473897823027719 -0.0564274402869045 1.0206075198891351 134 130 131
0.1123488109266940 0.0827071496769829 1.1331774344057863 115 99 99
-0.0053361223210262 -0.1890827544174553 1.2078714091305880 109 137 176
0.4696058934343113 0.0072903920160279 1.1709654404599412 168 153 130
0.1170721665981581 -0.0353587266015764 1.1294075082663539 118 151 186
-0.2178076086989554 0.0350845413642328 0.9603037609238955 166 168 165
0.3793759030643826 0.0132834551754883 1.1197282812725340 255 254 246
-0.1122058682210886 0.0001067887705098 1.0175577374935885 138 136 124
-0.2339466673847684 0.1262340540342168 0.7681682816206929 62 70 81
0.4535004183106142 0.1991527343600579 1.1271649494462501 44 56 56
-0.0545040632691177 0.0834586726862843 1.0347666040309873 111 115 118
-0.1964132109471237 0.0262148042676280 0.8996599355366689 169 163 167
0.3985749680385302 0.0412254858236038 1.1242956987136392 112 86 87
-0.2533151447292163 0.0098695307742586 0.7721184031573500 91 75 76
0.4509150213423097 -0.0884126299590587 1.2245264891639707 91 109 129
0.0648384311788013 -0.1870842917150214 1.2529150089325090 185 194 203
-0.1947328903198970 0.0929906958147774 0.8807667057475276 67 68 73
-0.1953431470350512 0.0077771928751669 0.9001321795579671 99 97 98
0.4061104695099561 0.0747723162085125 1.1203085375771051 160 141 124
0.4099699593659426 -0.1397583256274522 1.2391516258999562 60 79 121
-0.2745610228605852 -0.0206337839050418 0.7707437015900804 158 164 164
-0.2147408304157381 0.1572868058467017 0.9345167574317728 95 98 107
0.4064931626421296 -0.1502746655014106 1.2453918078446822 104 93 189
0.1545099281456190 -0.0036400323047520 1.1647137269051560 76 59 41
0.3966498829352427 0.1406675751735130 1.1010556707862877 81 77 78
-0.2723874014656096 0.0145058837853106 0.7662866844145428 76 75 73
0.2810731243207198 -0.1437002410601383 1.3611332040478841 104 104 128
0.0528197138599559 -0.0993086687880810 1.1000011857792571 96 85 79
-0.2530833505698320 0.1029125045178598 0.7568788356725324 115 84 89
0.4190593566762822 0.0863652103720546 1.1256514536575153 108 92 92
-0.2173046939606515 0.1136051769818586 0.7783266290946542 53 60 70
-0.1631552460293361 0.0042300311416910 0.9943901342591703 122 96 95
0.0136814106421183 0.0862778387492083 1.0257990800293801 93 88 82
-0.1829075459780642 0.1466085168473439 0.7836202218935787 92 87 84
-0.0605055887975732 0.0329875481393046 1.0551063052098761 49 69 102
-0.1949023665470257 -0.1272888705332966 0.9284646720867782 156 154 157
0.4346753839626414 0.0964164953687007 1.1331816741377356 63 62 78
-0.2961357498918412 0.2074800473682465 1.0650759291041725 30 36 60
0.3949398247702581 0.0374395199332151 1.1223321109413213 183 186 177
-0.1947629997152067 0.1282019788538672 0.8732811394597102 73 71 76
0.4963728281177546 0.0989305302492269 1.1631457861817140 149 149 139
0.3425841837774587 0.1451695607717018 1.1643805619760597 77 72 69
0.1411990329390722 0.1622567658959002 1.1359945141155867 94 106 130
-0.2457213853454385 0.1599855744640614 0.7479250747432848 75 79 82
-0.1942846364080056 -0.0430473156598056 0.8201984892549221 87 67 68
0.0580254719435324 0.1344049923346423 1.0629824051276586 58 74 73
-0.1977123499122292 -0.0321757485163725 0.8165109734264179 112 109 116
-0.2213040490713916 -0.0129171645649485 0.9681245057614237 117 112 118
-0.2409334567207117 0.1446734174659961 0.7525293543003648 174 158 133
-0.0540208906817306 -0.2023333102360407 1.1907204430108815 68 61 79
-0.0066140743950782 0.1265866904910175 1.1570462401251631 99 90 81
-0.1846158197988080 0.0521983411855033 0.8056090822102925 85 74 78
-0.2755195847917652 -0.0921102540461947 0.7767493873816023 151 141 132
-0.2237455068052612 0.1562670033061655 0.7603917592337804 176 166 154
0.3847586900989330 0.1850749689165361 1.0886998304675870 151 151 153
-0.0868235817975875 -0.0150120675231906 1.0428221374923767 137 114 106
0.1686767989434320 0.1113292629585925 1.1537437567673023 130 128 129
0.4674716482153758 0.1003285150618647 1.1503431619736599 131 119 107
-0.2885217128921336 -0.1082903341056830 0.7819521603405551 254 254 254
-0.0958752750122736 -0.2009529160424925 1.2040644531021873 103 106 115
0.1258126766389003 0.0781430233322578 1.1365905965775847 155 155 147
-0.1480785167376997 0.0053476910240729 1.0039892890816646 150 143 133
0.4251066271514762 0.2299084702101576 1.0960649497075095 102 86 96
-0.1849402933210816 -0.1028912862357929 0.8416829093076909 94 118 152
-0.2874482481973585 -0.2284813594417351 1.1278190773380403 162 165 174
0.4118011130666985 -0.0043887364999636 1.1425770951925629 168 140 93
-0.0118236412716625 0.2118596445471549 0.9978044677252927 98 104 136
-0.2724056586606710 0.1753694529374230 0.7276465064931640 139 118 113
0.1702025327082759 0.1511477543971739 1.1449349373489581 91 78 87
-0.2087045243537508 -0.1205955603777473 0.8374867025339305 122 124 136
-0.0998149958190918 0.1749920512707608 0.9944084596249335 52 58 54
0.0405491344490725 0.0837400762838896 1.0606157165252494 47 64 90
0.0129529922600227 -0.1990084220554499 1.2330424722321731 154 164 189
-0.0999714537989952 0.0453731088378956 1.0223425627574905 123 121 124
0.4214356506008278 -0.0602900315444221 1.1656361012482441 255 249 219
-0.2620330182911765 -0.0346086478088668 0.7818637305268210 157 162 165
0.4173807437231853 0.1858192162026976 0.9834876161442767 105 127 140
-0.0542614043981345 -0.1669645409079691 1.1829566986241342 56 63 73
-0.1943250525201306 -0.0238699512075346 0.9064569649120803 91 91 101
-0.1751983642544110 -0.1152636695472637 1.0680616062813950 33 47 73
-0.3126972168742893 -0.2327008574994332 1.0362061233292654 204 209 215
0.1700347884857896 0.0764586555665382 1.1624237804512474 119 108 106
-0.1912153885606618 -0.1254271127799220 0.9151685885369892 88 114 171
-0.1921350736160074 -0.0250698828526557 0.8171994114856871 95 83 85
-0.2589348736478018 0.0995417330434591 0.7531872844619285 151 145 121
-0.2166884511683335 0.0530377485115096 0.9565436542923498 163 168 162
0.5372984247448910 0.2891164396362731 1.2256277182098894 37 38 59
-0.4127330810774484 0.1952462594872100 0.7789843268913352 46 36 73
-0.1866904318885484 0.2142943871219815 0.8395822965726396 90 102 128
-0.1980850124710240 0.0268327110396683 0.9038195526473966 129 127 115
0.4519168006301345 -0.0084155769182570 1.1536652736903588 177 162 139
0.4700637579017968 0.1939878849284847 1.1296819890486240 146 148 134
0.2557694471332022 0.0758632935676263 1.2103240718192825 150 146 145
0.2285547655857338 0.0161753850345701 1.2049866276931058 157 137 130
-0.2695352339628649 -0.0347807477340526 0.7776847228822839 80 79 87
0.2558031694134777 -0.0353832747002716 1.2428542674973793 119 119 111
0.2475065636048101 0.1472229627372921 1.1888143599081109 121 110 106
0.3015538797115125 0.3030011321714935 1.6609367105585773 9 9 17
0.3961380636526211 0.1274993101079745 1.1045114334820569 80 67 61
-0.2005512037359110 0.1411316541311278 0.7759907274675002 160 151 134
-0.2466052071617266 -0.0232048772345585 0.7871781909505350 154 150 147
-0.2648125395423048 -0.1981001331929248 0.8694473520464837 68 93 98
-0.1582299529870598 0.0358503634046072 0.8179952264194816 84 84 82
0.1842636678600603 0.1425224181291616 1.1559335158159945 82 76 76
0.3720123055285762 0.2122619942545438 1.0900130633929006 59 49 58
-0.2066443803433525 0.0154565167084768 0.9799067584964304 89 90 85
-0.0614401944869998 -0.0901078300591470 1.0754510501444943 138 133 129
0.2502796833841126 0.1020047373864411 1.2005801260762541 91 85 89
-0.0998173933672299 0.1770187087708355 0.9936191986855459 103 103 111
-0.0648725401559088 0.0059462596902468 1.0475508588934885 161 155 141
-0.2171779071672852 0.1501774840727691 0.9355740343174225 140 150 159
-0.1997487433397082 0.1217851946818135 0.8838018144141415 130 137 130
0.3898062927433985 0.0882094298135719 1.0992601355019787 202 220 230
-0.2171733606437724 0.1338409506492024 0.9393412625617072 145 153 156
-0.0084024706889976 0.0955059763872997 1.0224975001293806 149 146 139
0.2503626424525691 0.1712407854039893 1.1858231623637094 98 105 111
-0.2736998977394403 0.0735043072100004 0.7508919469017249 150 150 122
-0.2899049356177158 0.1769851106107533 0.7172616723964044 176 164 178
0.2353100439262905 0.0420341541646637 1.2049352988011233 168 164 155
0.4384044385895440 0.0458992380112582 1.1503310464461252 53 82 114
-0.2443436993595385 0.0432663370018851 0.7657194323081550 124 128 137
0.0853491929762811 -0.2027132592734759 1.3103222840395681 255 255 255
0.2331174287242164 0.0493672925705901 1.2019667319599288 163 163 151
-0.1027502281519645 -0.0045682311152884 1.0308413228056539 152 149 132
-0.2170053444345464 0.0186761542080159 0.9453209474907710 159 162 169
0.1192235743740551 0.0448960987941936 1.1104598224715698 149 146 139
0.0225915918777397 -0.0264606750361671 1.0605652796363350 84 71 55
-0.2021031985531407 -0.0887216537527744 0.8149490781158775 124 141 167
-0.2004898072030333 0.1057270994792972 0.8878536607760339 139 149 141
0.4746601494134791 0.0810736806808257 1.1572363248299933 106 81 87
-0.0861841951744575 0.1862353141976025 0.9991603288673260 64 51 60
-0.2202865589895229 -0.0609604781299457 0.9831917611587456 77 91 128
-0.1831299139355078 0.1054656730091979 0.7915510388096778 140 116 92
0.1644520009774342 0.1474235141853563 1.1435607170083308 114 113 111
-0.2756114513959930 0.1472698426354393 0.7386998374352446 178 174 165
-0.2241024446133837 0.1475107956807681 0.7693893894605872 1 34 13
-0.2247446937174576 0.1893023178907732 0.7572845015938717 83 90 108
0.2289417494982558 0.0052437241049264 1.2012985235934439 148 136 112
-0.1974233472520364 0.0643236256483289 0.7955381324239469 56 50 38
0.2353609279979022 0.0576850459117918 1.2013923363959649 164 160 151
0.1230700631518726 -0.0180462283181784 1.1123666398286054 177 170 151
0.3474195226640270 0.1224566738036854 1.1634789699031065 123 124 126
0.3874152960833906 0.0917866989812022 1.0988719001181313 81 81 105
0.1482515056455897 -0.0305954046373695 1.1791101016890504 68 92 128
0.0483153248310567 -0.1751427732210701 1.2443400662870505 90 96 120
0.0028520748456224 0.1080750690725139 1.0273304991181291 111 107 108
-0.1659140242296109 0.1353884925802167 0.9674006425270270 50 57 49
0.0739382832473247 0.0762415163947720 1.0738886072059473 142 134 121
-0.1586176456702298 0.0454361987885163 0.8180100964998981 189 186 169
0.1236501566947781 0.0965783757512102 1.1292621361497486 147 147 139
-0.1872103083062210 -0.1604367783948829 1.1528198511316718 45 56 88
-0.3706331112291562 -0.2133572458461870 1.1278207606314778 123 126 159
0.0448537949719759 0.0588641996776907 1.0726283890094057 64 87 119
-0.0851716427483003 0.0364006035607769 1.0327484855915647 143 145 132
0.2478403228742250 0.0839239740461858 0.6368518888197214 160 158 146
0.0072396980497120 0.0669534744343397 1.0415187404293458 118 107 105
0.4193664018805040 0.0648230846010381 1.1304429744462337 122 102 91
0.2800611481658868 0.2363429460584910 1.1973142720007224 10 10 18
0.0940423409486515 -0.0910336122148004 1.2089320714933445 92 124 171
0.3842610077011246 0.0896521298382398 1.0959035716151366 159 184 165
0.1984895918866491 -0.1741485246563432 1.3554599276766708 241 255 255
-0.0855073300745705 0.0430429450176062 1.0305918240801653 73 69 68
-0.2334193000537944 -0.0357273858182093 0.8046471542018683 46 60 99
-0.1962954298413453 0.0615977474779717 0.7968859087459833 100 72 68
-0.1766298196621498 -0.0647031120117714 0.8305745299984475 98 85 79
0.3939324910852078 -0.0018093556341688 1.1290537190684804 186 173 139
-0.2740057494944829 0.0092794335348692 0.7650121484479486 149 153 138
-0.2501259260081479 -0.0564586127256160 0.7923824494488783 91 80 76
-0.1843695372936058 0.1193997295602437 0.7899115715799570 161 148 129
0.1650101682164637 -0.0668640183579536 1.2364495418557979 77 92 121
0.3507734765215667 0.1466540629496705 1.1534695789181246 116 122 122
-0.1521553774539526 0.0576685789375462 0.9909097079160025 165 165 167
0.2105118125528987 0.1894406089893416 1.1625361452828789 43 50 42
-0.2545749438495257 -0.0728657937036149 0.7926002998864603 128 103 109
-0.2622432585476525 0.1105183332517435 0.7502066818474308 162 145 125
-0.2238676995973928 0.0244133182704618 0.9571092096692305 201 202 206
0.1979656848011844 0.2350973690166142 1.1402790106379646 119 131 143
-0.2458488209673433 -0.0247009162739020 0.7871769797751889 154 154 144
-0.1702326777842690 0.0061492321744785 0.8508218870536488 149 135 160
0.4924634657804257 0.0301344820567003 1.1799703151373129 99 81 77
0.2369169087554312 0.0557464019669959 1.2007714203688664 123 119 118
-0.2148926790381603 -0.0463480244272886 0.8087574106526513 164 157 151
0.0002910093327667 -0.0291239609981766 1.0581159509881415 71 53 49
0.1854319570762281 0.1637025991816980 1.1517174097081520 132 134 129
0.1516960809836414 0.0627372629048370 1.1576659534206930 89 87 124
0.0435098603396771 -0.0044096511050230 1.0745340992175751 92 88 85
0.1878122508273005 -0.1617783607350648 1.3458347291480710 128 150 174
-0.2878594491893410 -0.0769773692692391 0.7785201582799822 177 186 191
-0.0132588018990225 -0.2844123739210462 1.2609438135686455 255 255 255
-0.2499125736207141 -0.0405277929549881 0.7884538433479961 123 108 111
0.3574623868444169 0.2582597802142254 1.1085633921339659 28 36 49
-0.3288298856500632 -0.2440464141217878 1.0281325293209034 154 153 171
0.1217497299008777 0.0669468497433901 1.1196922997819374 84 75 76
0.2361055001082398 0.0556809258604055 1.2025298638110937 156 150 138
-0.0192427148725502 -0.0229882947214142 1.0563171893044068 79 75 66
0.4639618941028860 -0.0760829554061184 1.2217773141176549 133 163 165
0.3046364022885933 0.0734227644237890 1.2363947745794157 103 81 83
-0.2213353687796829 -0.0601683121924999 0.8081834978755907 144 146 133
-0.2001527582219910 0.0614581697130627 0.7937614146078815 161 146 127
0.2498274142717299 0.2219566421818011 1.1738176543211349 120 131 123
0.2138695957664906 0.2220255245385543 1.0142776051531714 22 38 61
0.1236446599289641 0.1183621799501186 1.0912472236513546 157 154 145
-0.0381427862920680 -0.1044570156206288 1.1361583537990791 31 45 71
-0.1992370315290363 -0.0063745576311562 0.9123843411375225 167 167 165
0.3044079464567927 0.0577478787217122 1.2398138355770374 95 77 73
0.4498524106865162 0.1901533015966916 1.1260473645425972 17 17 27
0.3063702401501747 0.1144336740855077 1.2276336290264109 73 68 65
0.1226655293598370 0.2129642374239141 1.0714175469942526 111 122 128
0.5724089014404594 0.0982855333569167 1.1719537429725506 230 247 255
-0.3073312771386461 -0.2455435365042068 1.0539359442513372 255 248 255
0.3907259309100260 0.0640889367176332 1.1146322394132342 177 168 159
0.5735745864767362 0.0681891409903485 1.1779145031791303 62 55 150
0.4182718203239040 0.1531653907199491 1.1105386072510457 123 116 108
0.0977847840187592 0.0063924255254619 1.1031776156632151 123 116 110
0.4021399841825039 0.0916049076773356 1.1161045591956118 84 71 65
-0.1691875574294877 0.1449955019082593 0.7927419043545170 153 145 132
0.4335993224667171 -0.0176545484195968 1.1439850582756064 126 144 158
0.4021725959693412 0.1497812018811111 1.1031311233987078 68 67 49
0.1692811195188726 0.1783375070943905 1.1397227032738746 127 124 131
0.3935436071535303 -0.0016093833046190 1.1297902260928288 182 161 130
0.0156453539661969 0.0903833719056065 1.0302723006534980 85 76 61
0.0298468136475083 0.2040481985322156 0.9770934284959236 13 32 62
-0.1673574855188107 0.0334710747225882 0.8396599703034034 135 148 154
-0.1692914188510218 0.0803403464012188 0.8070094700072721 165 157 144
-0.1516788166487482 -0.2123944222521168 1.1761176115596812 235 255 255
-0.2733104250020060 -0.0335203017200957 0.7743925291159334 132 146 131
0.3426773357706189 0.1392438342097994 1.1634656053622616 49 45 42
-0.1938792604583082 -0.1355604321763816 0.8651751439025207 37 54 97
0.4974799806273243 0.3237699742307964 1.3144643039955430 71 71 83
0.4241085294294814 0.0598715645113812 1.1364408465255822 173 160 151
-0.1950703789620856 0.1444467548838567 0.8697898313302709 63 59 73
-0.0930367798926404 0.0916563074484600 1.0164024350648242 122 110 112
0.3710637173190720 0.1058694288687416 1.1091378853527309 73 65 62
-0.2250043137518535 0.0586505537620106 0.9507499461701480 138 142 145
0.2019486239386085 0.2381872067572274 1.0921783784086676 42 52 64
0.4144589777719889 0.0355003712872862 1.1334121535103143 112 90 76
-0.1697651946290487 0.0210391109093295 0.8494629179777287 171 173 170
-0.1747588330715174 0.1681666450713795 0.7847347155549413 52 67 86
-0.1840345346174761 -0.0623670264073176 1.0043418068757399 60 78 100
-0.2216645350107157 0.0910876241411176 0.9331437341584717 128 134 130
0.0504677375718117 0.0528352105066648 1.0762653490858307 79 94 135
0.2428997133164858 0.0653885038579536 1.2052389828383654 98 79 85
-0.0997545940941351 0.1814205169113309 0.9933166796423629 113 117 116
0.2501484502280966 0.0803273990808688 1.2062160936930792 67 62 59
-0.1592910896002081 0.0249762366538421 0.8137806380985543 202 216 227
0.4188655507506883 0.1765368719956065 1.1064289193189099 108 94 91
0.0050710530688327 -0.0567387637156644 1.0854186646834794 47 61 88
0.3947342749273598 0.0190576414745808 1.1253404083963405 128 102 105
0.2755884278825281 0.2445796402039055 1.1837968594266577 106 109 126
-0.2092525436430248 -0.0407836407903759 0.8102324958354187 66 71 67
0.1495066139025432 -0.0150707340911322 1.1794516940121205 114 130 166
0.3680121604941487 -0.0490455663929279 1.1864631998243687 64 76 92
-0.2609793773597422 0.0934879324421612 0.7453372303924798 168 152 119
0.4490914307674237 0.1325959493046025 1.1300769974790661 113 100 94
0.0613551505544205 0.0433964614720810 1.0826784647780587 86 113 143
-0.1464307393402341 0.0464772375540292 0.9960979170166402 142 143 129
0.4417450729921249 0.0525402831924599 1.1520938243636465 100 118 132
0.4787151000057819 0.0648399714544709 1.1631086304793454 156 148 135
0.3430680680062648 0.0474537530944174 1.1843991122404212 85 66 72
-0.2151849174604817 -0.0851357181794582 0.8063332017346212 158 142 117
0.2560472363111139 0.0752140966208869 1.2083478480766447 115 119 120
0.3368968402064341 -0.0507914519651446 1.2157827583800520 156 160 161
-0.2738073211239277 0.0735595063199309 0.7510032574719829 150 150 122
0.4675921556897736 0.0404243336476317 1.1612770295043093 135 134 130
-0.2572552246678049 -0.2540289459914783 0.9171172834565494 147 161 200
0.2991156409017309 0.0042576228636709 1.2388330929150351 63 74 96
0.0850144093374800 0.1132396739346086 1.0631771405777610 146 147 133
-0.2068871336851740 -0.0585784452749202 0.8135254067929759 161 154 135
-0.2490148031084176 -0.0706032523129016 0.7963272915551581 65 57 68
-0.1933864937800407 0.1092353728397107 0.7867727603935523 48 36 22
-0.2486846161170332 0.0160392322792025 0.7762907801271122 142 146 155
0.2494349210625281 0.1689829353535051 1.1858109668101695 157 146 142
0.2309031881164988 0.0905384750908173 1.1907176869994247 145 138 130
-0.2736248198661951 -0.1473607390665362 0.8259012188074519 150 184 185
-0.1721482257606037 0.0636458402367721 0.8065382021795037 126 105 104
-0.1961022184733624 0.0616703589317636 0.7967505791970474 100 72 68
0.4412274500159908 0.0522673797217900 1.1537556941685496 120 140 151
0.0902492849064557 -0.1925565865886741 1.2613821876254561 208 240 255
0.4303794702528472 -0.0482910556212557 1.1620368066155990 129 114 117
0.1700907218643906 -0.0131645171451819 1.1710552602204325 144 161 189
-0.1651768292542721 0.0713607439028971 0.8289318599150126 66 76 78
0.2323311681103288 -0.0653244276152456 1.2760107389141404 125 137 161
-0.1472927678087289 -0.1808095012328320 1.1518708090375731 92 106 135
0.2427098832206076 0.1808765510873129 1.1795881549247096 87 69 69
0.0483132412807027 -0.0236592690006797 1.0741100937093073 84 68 52
-0.2147033161524541 0.0900085809269337 0.7798469007959211 98 115 133
0.5171945337449445 -0.0031951607454666 1.1932889517274496 131 122 105
0.0426153766146141 -0.0781418989919733 1.0914978327887874 114 117 110
0.1610829781540553 0.1308681295173386 1.1415890050911865 135 127 114
-0.2707380339539983 0.0699310794127345 0.7537371079521035 101 82 76
0.3810376084067957 0.0000867093614638 1.1236868567008926 131 97 122
0.2900065137189234 0.2487044448693926 1.1868442328706750 56 55 53
-0.2037654990414461 -0.0798236624582598 0.8137917133230219 160 152 133
0.4122519420199770 0.0720390221033290 1.1251206889486016 101 89 103
-0.0860050599162120 0.0945083448041791 1.0190781048077628 56 49 43
-0.2193431687081844 -0.0290961603404303 0.9650750744210196 118 104 101
-0.2776095032215962 0.0231138015482922 0.7605764781639051 86 89 98
0.0429039331139353 0.0842063054235718 1.0559301404553005 61 70 101
0.4710077745991698 0.0763475937829048 1.1560933156943873 61 57 58
-0.1537106954505812 0.0432052872789031 0.9923048798950440 82 65 71
0.3824652944358337 0.0909508382321493 1.1022616361130211 99 101 113
-0.1900682799812958 -0.1081967890295837 0.9031930602827307 122 125 132
-0.3195752178144417 -0.2507040438869242 1.0324066676286550 105 96 97
0.4308662636086997 0.1461565424172772 1.1193868334575092 91 89 94
0.3858678791962710 0.1126934338320709 1.1017464269495587 137 136 131
-0.2698819211519665 0.0781400069540275 0.7528297194247900 65 61 62
-0.1847741364815123 -0.0081684521021166 0.9837656405283020 141 134 124
0.3555037835171987 -0.0148858078196917 1.1611434931573084 240 237 232
-0.1724799471896212 0.0696361881546263 0.8070659018650146 183 180 165
0.5120120920939806 0.2451899411451804 1.1416793171149109 9 27 65
0.1650185858499247 0.0817621418810783 1.1570034849979478 128 135 128
-0.1713527984009831 0.0447367822903479 0.8131090572401488 141 132 115
-0.2735841232281793 0.1085391718384724 0.7414308491563725 143 144 138
-0.1732238778061311 0.1228486698823290 0.9675928073420199 120 121 123
0.4152958676978984 0.0092114878674234 1.1405428311517076 111 97 97
-0.1368939097077062 0.0746360578891819 0.9914253534591845 159 167 169
0.4195868159563007 0.1555987523434238 1.1109991604114771 159 152 142
-0.0862275049960815 0.0292035591547279 1.0330203078389080 129 118 126
-0.2393066722702437 -0.0935366777088831 0.7953704705069353 57 72 93
-0.1733852798046203 -0.0952167036577340 0.8459539227676683 98 111 155
-0.2512981170245126 0.1355933925733957 0.7490665516395434 110 83 64
-0.1947651143096295 -0.0269437607418048 0.8167870177990137 70 72 61
-0.1520844084602395 0.1870704298686255 0.9623543756694031 104 97 105
0.0363377124863936 -0.0407386024302668 1.0806615014405161 159 168 173
-0.2241760695823559 -0.0292041250364366 0.8096356794685687 64 94 132
-0.2155108566930242 0.1891519811369705 0.7583863314504257 70 87 105
-0.1688705778511251 0.0152075179127314 0.8209473200431013 150 148 151
0.0835766591383410 -0.0229058180702086 1.0914619436932256 170 157 138
0.1510930453797176 -0.0473288222054116 1.1840845976883867 64 70 66
0.2292982601755059 -0.0729921411426370 1.2794630946671481 22 44 65
0.4039429242002245 0.0854371511631770 1.1128255886491858 135 105 103
0.4351004633304050 0.2700741489679777 1.0927197338320820 64 74 86
0.1227004151173293 0.2457369475710461 1.0586851146109244 101 109 122
-0.0967203594849159 0.0507285588004394 1.0220864716210782 91 76 73
0.2784230153230892 -0.0928403126405622 1.3516274379871582 133 142 151
-0.0995787163535634 0.1101732780887762 1.0085076475728607 80 72 85
0.0576307127792344 0.1012207547782188 1.0567274920575849 162 148 137
0.1842695485801571 0.1819424275725113 1.1470209215354867 136 145 140
0.2499522037696500 0.1784044367132576 1.1845610521036989 74 69 65
0.3615384437756693 -0.0061856897219888 1.1450890740776978 255 255 234
0.1200624478662548 0.0168139872254544 1.1116641305286277 187 186 181
0.0381687919962907 0.2007185470504008 1.0378412707320646 56 49 65
0.1560777689122054 -0.0624583388628455 1.1823400636532455 156 143 127
-0.1975824676149646 0.0126344048236907 0.8063798418408585 74 67 57
0.2505504905163276 0.2193898393691747 1.1748947354916024 113 118 112
0.0008421480929600 0.1112446290898868 1.0265774709961677 114 106 104
-0.2495959507115337 0.1066514674435827 0.7576968854168878 85 70 75
0.4444637342876825 -0.0140269170547985 1.1671069634306588 108 116 135
-0.0658720879593707 -0.1825753559751845 1.1865976651583474 71 86 107
-0.2255727083026474 -0.0241564984188893 0.8056715761201553 75 95 120
-0.2200772466420494 0.1260039761269976 0.9387951480109499 62 61 66
0.0475001960288660 0.1479560984364902 1.0534032140929437 89 105 138
-0.2102322520571527 -0.1588136066066465 0.8756115356961484 87 101 128
0.0126735432453771 -0.0275543393137852 1.0567485296918411 118 109 102
0.0460525795370471 0.1128667666742093 1.0517951260307852 70 63 44
0.4452834286686305 0.2234230462223260 1.1155147698008745 47 53 87
0.3199961430131361 0.2676772200553916 1.1018712020400088 57 75 79
0.2227493404208850 0.0441613430571300 1.1987836236048128 81 73 62
-0.0582445680319180 -0.1849624931122755 1.1863056405133710 179 189 198
-0.2477723107126751 -0.1341298371545737 0.8195450459290611 56 72 98
0.4957138832928634 0.2104528393518736 1.1406350276375026 112 121 118
-0.0930291851877640 -0.1854113796230357 1.1847973141467061 106 125 157
0.4888044773115463 -0.0359885175499625 1.2044516023227874 134 156 153
0.4829762442839673 0.0511275602244520 1.1685197071060389 173 174 166
0.4097891624484682 -0.1818417534246693 1.2671290054203168 109 113 158
0.3992309419536481 0.1110334489795344 1.1096141597334073 93 76 84
-0.4082963602869900 0.1848922088839150 0.7669601700496145 132 49 79
0.3718106539585430 0.1064808716024205 1.1149223730663680 97 86 82
0.2507669920045657 0.2639988530993648 1.1322514883767989 104 116 138
-0.1012382530030919 0.0799660862906783 1.0109472044114101 130 131 135
0.0412595462994507 -0.1499040358636849 1.2415271400404411 148 175 204
0.3460426934721516 -0.1687145246771328 1.4019624815609237 143 133 134
-0.2819527476129056 -0.1225815776268192 0.8015130980573431 107 136 140
0.2833579958431638 -0.1466688840048850 1.3623166634746477 165 161 162
0.4153164484002755 0.2384418180505719 1.0881701014896337 83 79 93
-0.2715621466760070 0.1006853318460274 0.7469779670035068 129 101 100
-0.0203839927028906 -0.2206473418563480 1.2487797981970081 82 91 124
0.1669427603535502 0.0891826924068084 1.1576769234995230 152 146 122
-0.1944955810215639 0.0932648872403615 0.9575807227306571 67 64 59
0.3239088212326585 -0.1675054169958008 1.3904052815739831 239 230 223
0.4511506628259725 -0.0882798472981674 1.2239189426515176 79 80 108
-0.1588063584935311 -0.0047580984727733 1.0010144551814770 134 122 126
-0.2601261784472820 -0.0408797855987965 0.7845216494267360 65 66 70
0.1004451751707450 -0.1738534752763015 1.3026634333764175 107 124 154
0.3755439449767010 0.1280006421269856 1.1062257689161350 114 129 124
0.0838361612311531 -0.0980731231063178 1.1734609220430563 150 179 213
0.2502062143852812 0.0954618135112136 0.6193386642005174 0 13 55
-0.0104931984414846 -0.2314730889401554 1.2439371553326972 252 255 250
-0.0486382362903017 0.1440743362295867 1.0320004847739410 62 77 96
-0.2131228457308685 0.1186494345986542 0.9468991263665236 106 106 108
0.0829472010792687 0.2197529586123780 0.8532157699827564 51 60 89
-0.2500832396061542 -0.2247950599966028 0.9031320080779767 51 67 103
0.0700749285003514 -0.0732208326766744 1.1287611209915966 160 162 161
0.1650083715661210 0.0361740285248038 1.1668661476815556 131 122 113
0.4479620051487294 0.0527683283983968 1.1567319241461897 129 148 163
-0.3496194632773245 0.2095184192991496 1.2012046816669535 69 83 118
0.4641637462194445 0.0471765037806622 1.1592879562174876 149 146 139
0.2423801699729867 0.1950868141165629 1.1767331683124111 75 61 61
0.3833211543658849 -0.0216077625037176 1.1196334931141700 53 69 94
0.0461230060516772 0.0220283012683618 1.0773102987529333 65 85 120
-0.2747218859130218 -0.0044384843318444 0.7670037902932851 164 165 167
-0.2580638593920029 -0.0958688361644937 0.7891525850161357 57 83 108
-0.1779434380528810 0.1538882208198418 1.0654622783034209 115 112 105
0.4137347500785501 0.0212702885260963 1.1373311047551018 125 101 99
0.4167322525680584 -0.1623810630747034 1.2602656292018191 72 90 90
0.1288230980893994 -0.0390066872365864 1.1668861421328469 150 144 144
0.1516034430595407 0.0420411750066641 1.1634113332236704 64 74 101
-0.0077153519528397 -0.2291261083325862 1.2491629183065487 85 92 118
0.4728176445919551 0.0571091800399493 1.1616945711045163 130 102 99
0.0666643873805390 -0.2205001852256477 1.2546121927686187 114 129 150
-0.1040739394208758 0.0031529724090111 1.0265161899564623 146 135 129
0.4153994950103251 -0.1686210311368502 1.2636958623730847 229 253 253
0.3062966833348084 0.1618383915260157 1.2171410380280387 54 53 59
0.0242881571658593 0.1937586776908439 1.0141206993274603 132 142 154
-0.1707634846446346 0.1349208470319478 0.8246173367813321 141 144 149
-0.2220021200809961 0.2155512061940234 0.9141828238342713 116 111 115
-0.1216042759094075 0.0771104023368795 0.9992709806317081 138 138 138
-0.1941197730807435 0.0225490341486537 0.8070405380746233 94 83 81
0.4321050207946024 0.2074373039713098 1.1089494427856774 18 30 46
0.0533139039216682 0.0340542663970870 1.0798044465869092 110 131 150
0.4746994269821687 0.0811081348074044 1.1575535693508145 106 81 87
-0.0990560021330411 0.1127736644479027 1.0077710521028018 114 116 113
0.3945055363626959 0.1984207771432313 1.0873531767496467 147 139 137
-0.1658010913126928 0.1139481062821090 0.8202501044817027 60 63 70
0.1495751496234941 0.2581549301114553 1.1104447021049548 29 38 55
-0.0505769413250932 -0.1688387104768033 1.1854188174365243 143 150 158
0.4062288399330242 0.0424874120735354 1.1280905307095390 179 176 167
-0.0150888249495195 -0.1663598120270633 1.1791609489877646 143 172 206
-0.1766816965011233 -0.0245765367303762 0.8255031620148819 110 109 125
-0.1862980558098598 0.0436365119158766 0.8776585738725665 87 99 111
0.0009203961489179 -0.2647602256806931 1.2667730698613482 99 105 131
0.3552852919410100 0.2758156791704386 1.0991880106799892 37 53 66
0.4070892768420661 -0.1634099313419548 1.2560437525941957 106 88 198
0.1244902760633387 -0.0093614493566915 1.1462771150668984 179 172 156
0.2507383512884908 0.2208780975404630 1.3444075494578318 91 102 130
0.3867013271666147 0.1685611994925640 1.0885578782048473 149 148 146
-0.2082435792750469 -0.2136730241986828 1.1468933506060801 40 55 76
0.4703889013174363 0.0949404737512505 1.1525707023509952 124 124 124
0.2497531751865663 0.0071734493721061 1.2136326403981903 87 73 60
0.0506944855660175 0.0686000371013571 1.0798806418825035 99 125 162
-0.2207914550748215 -0.2360948876082656 1.1488180038882931 91 92 136
0.1866754095408434 -0.0136443486111431 1.1934327307194366 62 81 114
-0.1975903709430705 0.1386567460112972 0.7788160178034282 97 72 67
-0.2498855015551725 -0.0039210478064930 0.7818042882804229 162 156 166
-0.2168101811807968 -0.0099848757504172 0.9696567850296419 110 110 110
-0.0548986505669599 -0.2030590079136028 1.1888490334208788 135 144 161
-0.0082394926719769 -0.0127162183716195 1.0479027744944081 163 157 143
-0.1877477937959895 0.0523075977642083 0.8036654341879205 48 48 50
-0.0146018974670308 0.1114714788181886 1.0249898147651286 62 66 65
-0.2928102620822476 0.0083816820008940 0.7579679257502635 255 255 255
-0.1938289565409080 -0.0188250135982722 0.8148602852852264 111 110 128
-0.2182293695126764 -0.0250468087788034 0.9698048686610288 168 169 163
0.4960640321344871 0.1708251097618269 1.1502509643810537 105 87 85
0.0431166859187593 -0.0726961112461260 1.0914277388638611 158 155 148
0.4700704009121552 0.0605658363460372 1.1593968144619458 86 69 79
-0.1869109927851334 -0.0323493520904038 0.8219415668190545 78 73 79
0.4038818670002199 -0.0140239937214506 1.1363525234272809 155 141 112
-0.2923322681852024 -0.0991154676387354 0.7692892293183330 244 255 245
0.4959055582107537 0.1944216773846504 1.1440285026279569 125 128 107
0.2364874684090954 0.1676137604370762 1.1786318908201652 128 124 121
-0.1834402323700682 0.0610198177316380 0.9748558677602188 66 80 93
0.1140284094154523 0.0675663735441045 1.1345837378301427 116 102 102
0.2359447586702167 0.1651625800609040 1.1789570964844180 59 53 53
-0.2042830187391986 0.0048075341691395 0.8056874773447019 190 186 187
0.0603154761116559 0.0827749093846868 1.0770083692923678 72 74 95
0.3024024756382194 0.1917819140906848 1.2089521456754220 122 116 126
0.4041258198342365 0.1128780650308852 1.1116730092126981 152 131 110
0.1570014276888658 0.0143042632758392 1.1681058040734187 161 149 127
